ply
format ascii 1.0
comment Created by CloudCompare v2.11.1 (Anoia)
comment Created 2022/7/21 下午5:28
obj_info Generated by CloudCompare!
element vertex 719
property float x
property float y
property float z
property uchar red
property uchar green
property uchar blue
property float nx
property float ny
property float nz
end_header
-1.03732 -0.601953 9.29651 239 41 41 0.0565917 0.196265 -0.978916 
-1.09823 -0.559014 9.30309 239 41 41 0.336258 0.135876 -0.931916 
-1.2532 -0.450992 9.31808 239 41 41 0.0354893 0.248425 -0.968001 
-1.31937 -0.400693 9.33251 239 41 41 -0.695538 -0.475368 -0.53875 
-1.40607 -0.316249 9.38635 239 41 41 -0.825851 -0.552024 0.115066 
-1.41243 -0.298934 9.41114 239 41 41 -0.860791 -0.499401 0.0981728 
-1.42428 -0.278402 9.43537 239 41 41 -0.871323 -0.48029 0.100592 
-1.43456 -0.244836 9.48591 239 41 41 -0.779531 -0.618652 0.0979898 
-1.44782 -0.220254 9.51605 239 41 41 -0.856562 -0.501226 0.122779 
-1.48045 -0.156559 9.59629 239 41 41 -0.839917 -0.519949 0.15554 
1.74475 -2.71585 8.87009 239 41 41 0.197185 -0.155944 -0.967884 
1.61902 -2.61367 8.89547 239 41 41 -0.142206 -0.387195 -0.910965 
1.4662 -2.49785 8.91214 239 41 41 -0.0182661 -0.0870324 -0.996038 
1.38038 -2.41738 8.94939 239 41 41 0.435245 -0.67538 -0.595335 
1.40111 -2.40837 8.99125 239 41 41 -0.657693 0.699299 -0.280039 
1.38254 -2.38302 9.01356 239 41 41 0.228594 -0.130441 -0.964744 
0.914031 -2.03233 9.06376 239 41 41 -0.0789223 0.0633601 -0.994865 
0.861236 -1.9928 9.06992 239 41 41 0.118525 0.253981 -0.959919 
0.787754 -1.9341 9.08532 239 41 41 -0.00333117 -0.145461 -0.989358 
0.664313 -1.84192 9.1 239 41 41 -0.305476 0.0904628 -0.947893 
0.42716 -1.66724 9.12538 239 41 41 -0.176998 0.0386816 -0.983451 
0.326607 -1.59155 9.13974 239 41 41 -0.138508 0.112011 -0.984007 
0.258664 -1.54283 9.14522 239 41 41 -0.0011865 -0.245605 -0.969369 
0.217606 -1.51099 9.15302 239 41 41 -0.120607 -0.0188103 -0.992522 
-0.107729 -1.27142 9.19375 239 41 41 -0.270307 0.290544 -0.917888 
-0.256042 -1.16672 9.20532 239 41 41 -0.0401775 -0.353821 -0.93445 
-0.381855 -1.07434 9.22237 239 41 41 0.283604 -0.0362314 -0.958257 
-0.623123 -0.89999 9.25153 239 41 41 0.0893787 -0.107951 -0.99013 
-0.873832 -0.717634 9.28631 239 41 41 0.0547452 0.217764 -0.974465 
-0.999754 -0.630318 9.29663 239 41 41 0.0738525 0.187658 -0.979454 
-1.48794 0.447648 10.7297 239 41 41 0.932877 -0.0701312 -0.353302 
1.93208 -2.86401 8.84874 239 41 41 0.413477 -0.155948 -0.89706 
1.85763 -2.80581 8.85914 239 41 41 -0.172716 -0.16504 -0.971046 
1.82259 -2.77807 8.86472 239 41 41 -0.102752 -0.153523 -0.982788 
1.66464 -2.657 8.88327 239 41 41 0.0752327 0.0116558 -0.997098 
1.17714 -2.23124 9.03926 239 41 41 0.142119 -0.201015 -0.969224 
1.06781 -2.15288 9.04474 239 41 41 -0.039848 -0.220975 -0.974465 
1.00421 -2.10152 9.05854 239 41 41 0.0867501 -0.286146 -0.954251 
0.606417 -1.80695 9.10001 239 41 41 -0.025021 0.092469 -0.995401 
-0.135247 -1.25791 9.19271 239 41 41 -0.057136 -0.00934954 -0.998323 
-0.584166 -0.932179 9.24689 239 41 41 -0.108927 0.132867 -0.98513 
-0.695582 -0.85048 9.2631 239 41 41 -0.13954 -0.14695 -0.979252 
-1.3431 -0.382105 9.35394 239 41 41 -0.471745 -0.146604 -0.869462 
1.90158 -2.84785 8.84763 239 41 41 -0.0660151 0.242886 -0.967806 
1.79297 -2.76223 8.8642 239 41 41 0.0124148 -0.156878 -0.98754 
1.55418 -2.57168 8.90603 239 41 41 -0.119665 0.107817 -0.986943 
1.40324 -2.45661 8.92385 239 41 41 -0.0209009 0.113305 -0.99334 
1.27138 -2.30736 9.02759 239 41 41 0.390369 -0.157567 -0.907075 
0.737113 -1.90956 9.08319 239 41 41 0.313 0.0342145 -0.949137 
0.697569 -1.87852 9.09061 239 41 41 -0.134454 -0.0540116 -0.989447 
0.633085 -1.82941 9.1001 239 41 41 -0.210417 0.109618 -0.971447 
0.532748 -1.75465 9.11217 239 41 41 -0.132729 -0.081047 -0.987833 
0.367328 -1.63338 9.12927 239 41 41 0.051601 0.0757547 -0.99579 
0.035876 -1.38655 9.1737 239 41 41 0.0088087 0.341022 -0.940014 
0.00142121 -1.35863 9.18274 239 41 41 0.0846375 0.192581 -0.977624 
-0.226339 -1.19327 9.20821 239 41 41 -0.11022 -0.11496 -0.987236 
-0.28364 -1.15524 9.20831 239 41 41 0.316786 0.149479 -0.936644 
-0.447986 -1.03514 9.22969 239 41 41 0.19966 -0.173561 -0.964372 
-0.760801 -0.810875 9.26517 239 41 41 -0.201268 0.069529 -0.977065 
-0.839662 -0.754403 9.27455 239 41 41 0.108293 0.122573 -0.986534 
-1.13551 -0.547146 9.30304 239 41 41 -0.057136 -0.00934954 -0.998323 
-1.17915 -0.513027 9.31415 239 41 41 0.0941721 0.177337 -0.979634 
-1.41821 -0.276519 9.46926 239 41 41 -0.825851 -0.552024 0.115066 
-1.451 -0.214695 9.54594 239 41 41 -0.878791 -0.476518 0.0256483 
1.71554 -2.70527 8.87718 239 41 41 0.0671257 0.267236 -0.96129 
1.6382 -2.64401 8.88989 239 41 41 -0.182084 0.151524 -0.971538 
1.21407 -2.27388 9.02469 239 41 41 0.153962 0.0823516 -0.984639 
1.10908 -2.19454 9.03709 239 41 41 -0.026126 0.289874 -0.956708 
0.936288 -2.06342 9.0593 239 41 41 0.209403 -0.486599 -0.848158 
0.831521 -1.98159 9.07753 239 41 41 -0.0212255 0.132939 -0.990897 
0.470128 -1.7107 9.12291 239 41 41 0.191541 0.226366 -0.955024 
0.296468 -1.58159 9.14452 239 41 41 0.0129597 0.00697831 -0.999892 
0.188426 -1.50387 9.15377 239 41 41 -0.200163 0.136417 -0.970219 
0.0638251 -1.41295 9.16735 239 41 41 0.100119 0.0573718 -0.99332 
-0.069684 -1.31188 9.1893 239 41 41 -0.224515 -0.00352641 -0.974464 
-0.799941 -0.785444 9.27264 239 41 41 -0.392028 -0.163939 -0.905228 
-0.950929 -0.679379 9.28712 239 41 41 0.162477 -0.106282 -0.980972 
-1.282 -0.444576 9.32571 239 41 41 -0.265966 -0.0036104 -0.963976 
-1.38266 -0.358493 9.36575 239 41 41 -0.884279 -0.402756 -0.236303 
1.58883 -2.61058 8.89614 239 41 41 0.0497818 -0.149345 -0.987531 
1.43239 -2.49056 8.91564 239 41 41 0.0995844 -0.267714 -0.958338 
0.972079 -2.09298 9.05835 239 41 41 0.238314 0.205631 -0.949169 
0.885264 -2.02562 9.07247 239 41 41 -0.0227679 0.459377 -0.88795 
0.104229 -1.44635 9.16353 239 41 41 0.247089 0.164281 -0.954965 
-0.166114 -1.24942 9.1939 239 41 41 0.0738525 0.187658 -0.979454 
-0.196445 -1.22627 9.19945 239 41 41 -0.0822794 -0.200172 -0.9763 
-0.413365 -1.06841 9.22583 239 41 41 0.232187 0.114169 -0.965948 
-0.477394 -1.02174 9.2341 239 41 41 -0.124277 0.255095 -0.958896 
-0.725773 -0.84315 9.26306 239 41 41 0.201447 0.122895 -0.971759 
-0.903721 -0.719682 9.27681 239 41 41 0.0991587 0.0207035 -0.994856 
-1.21019 -0.50299 9.3106 239 41 41 -0.036065 0.0863375 -0.995613 
-1.39514 -0.329528 9.41281 239 41 41 -0.881271 -0.463753 0.0910694 
-1.40513 -0.306699 9.4437 239 41 41 -0.853695 -0.499331 0.147896 
-1.43309 -0.24977 9.5171 239 41 41 -0.872427 -0.48061 0.0887931 
-1.47266 0.43159 10.7539 239 41 41 -0.459905 -0.854543 -0.241336 
-1.47903 0.450066 10.781 239 41 41 -0.988304 -0.140523 0.0592286 
1.52411 -2.56389 8.90697 239 41 41 -0.157314 -0.267569 -0.95061 
1.31975 -2.3614 9.0152 239 41 41 0.0059803 0.252369 -0.967613 
1.03902 -2.1459 9.054 239 41 41 0.116122 -0.188542 -0.975176 
0.757363 -1.93538 9.08545 239 41 41 -0.406139 -0.24728 -0.879718 
0.576114 -1.80118 9.1049 239 41 41 0.113979 -0.102229 -0.98821 
0.505009 -1.74356 9.12197 239 41 41 -0.0184089 0.276133 -0.960943 
0.228482 -1.5397 9.15321 239 41 41 0.322023 -0.0474695 -0.945541 
0.160884 -1.49142 9.15843 239 41 41 0.0229873 -0.245602 -0.969098 
0.135724 -1.47446 9.15854 239 41 41 0.112583 -0.0120234 -0.99357 
-0.312308 -1.14594 9.21369 239 41 41 -0.304676 -0.32251 -0.896192 
-0.351027 -1.11782 9.21832 239 41 41 0.0493144 0.134181 -0.989729 
-0.511395 -0.999424 9.24171 239 41 41 0.162341 0.149756 -0.975304 
-0.550253 -0.975468 9.23869 239 41 41 0.193037 0.0563524 -0.979572 
-1.03178 -0.631785 9.29323 239 41 41 -0.00789787 0.159086 -0.987233 
-1.06964 -0.604767 9.29786 239 41 41 0.218493 0.197045 -0.955737 
-1.24135 -0.483312 9.3174 239 41 41 0.0671257 0.267236 -0.96129 
-1.45169 -0.205552 9.58576 239 41 41 -0.853695 -0.499331 0.147896 
1.86899 -2.8418 8.85078 239 41 41 -0.145819 0.181323 -0.972553 
1.49535 -2.54883 8.90616 239 41 41 -0.188796 0.0316615 -0.981506 
1.35276 -2.3902 9.0128 239 41 41 0.0932455 -0.0362012 -0.994985 
1.23893 -2.30539 9.02338 239 41 41 0.170415 0.106663 -0.979582 
1.18572 -2.26427 9.03113 239 41 41 -0.256807 0.26532 -0.92933 
1.14516 -2.23181 9.03914 239 41 41 0.196843 -0.0441405 -0.979441 
1.08126 -2.18507 9.04389 239 41 41 0.196906 0.0794964 -0.977194 
0.667095 -1.87526 9.09074 239 41 41 0.0857306 0.214948 -0.972856 
0.440496 -1.70305 9.12405 239 41 41 -0.0299005 -0.221264 -0.974756 
0.336159 -1.6256 9.13667 239 41 41 -0.151144 0.23263 -0.960749 
0.266999 -1.57147 9.1504 239 41 41 0.313 0.0342145 -0.949137 
-0.032594 -1.35287 9.18282 239 41 41 0.0144722 -0.427589 -0.903857 
-0.100213 -1.30616 9.18573 239 41 41 -0.0697362 0.0697362 -0.995125 
-0.613603 -0.930264 9.25311 239 41 41 -0.277755 0.0159067 -0.96052 
-0.653088 -0.903491 9.25471 239 41 41 0.0917194 0.073602 -0.993061 
-0.686109 -0.879518 9.25906 239 41 41 -0.191625 0.0150977 -0.981352 
-0.868119 -0.74714 9.28419 239 41 41 -0.246698 0.114953 -0.96225 
-0.980827 -0.67259 9.28641 239 41 41 0.10627 0.101599 -0.989133 
-1.09654 -0.589326 9.30176 239 41 41 0.13783 0.245468 -0.959556 
-1.30557 -0.431369 9.34485 239 41 41 -0.811779 -0.307373 -0.496525 
-1.38146 -0.353279 9.39997 239 41 41 -0.856562 -0.501226 0.122779 
-1.41575 -0.274637 9.50675 239 41 41 -0.820556 -0.56654 0.0756338 
-1.43432 -0.241378 9.54702 239 41 41 -0.835753 -0.536335 0.117732 
-1.45718 0.400482 10.7318 239 41 41 -0.796832 -0.604161 -0.00688111 
-1.4821 0.460286 10.8148 239 41 41 -0.942892 0.297113 -0.150591 
1.82415 -2.81192 8.85607 239 41 41 0.123095 0.09027 -0.988281 
1.76006 -2.76129 8.86598 239 41 41 -0.411435 -0.414637 -0.811663 
1.68392 -2.69963 8.88063 239 41 41 0.283876 0.00609175 -0.958842 
1.55921 -2.60267 8.89784 239 41 41 0.226335 -0.0526075 -0.972628 
1.46413 -2.52924 8.9104 239 41 41 -0.245289 -0.256502 -0.934901 
1.37345 -2.45636 8.92779 239 41 41 -0.118038 0.147244 -0.982032 
1.35388 -2.43621 8.93954 239 41 41 0.477724 -0.585002 -0.655403 
1.00981 -2.13452 9.0544 239 41 41 -0.255199 0.00359436 -0.966882 
0.800922 -1.97537 9.08297 239 41 41 0.126221 0.285659 -0.949983 
0.397704 -1.67872 9.12346 239 41 41 0.114752 -0.171511 -0.978476 
-0.380593 -1.10431 9.22265 239 41 41 0.21615 -0.224307 -0.950245 
-0.579277 -0.962022 9.24366 239 41 41 -0.0363253 0.179283 -0.983127 
-1.16677 -0.543966 9.3092 239 41 41 -0.153654 -0.00785091 -0.988094 
1.90733 -2.88184 8.84422 239 41 41 0.103982 0.411769 -0.905337 
1.60604 -2.64338 8.89181 239 41 41 0.101524 -0.172469 -0.979769 
1.376 -2.41988 9.00487 239 41 41 -0.423252 0.702101 -0.572636 
1.28929 -2.35178 9.01904 239 41 41 -0.172369 0.139657 -0.975082 
0.905475 -2.0618 9.06425 239 41 41 0.0975209 0.11867 -0.988133 
0.706364 -1.91048 9.09143 239 41 41 0.158993 0.103164 -0.981875 
0.639014 -1.86196 9.09608 239 41 41 0.208244 0.192327 -0.958981 
0.545342 -1.79082 9.10955 239 41 41 -0.241579 -0.0738505 -0.967567 
0.30371 -1.6116 9.13797 239 41 41 -0.047656 0.154592 -0.986828 
0.00607228 -1.38846 9.18053 239 41 41 -0.233225 0.192781 -0.953122 
-0.0615516 -1.3415 9.18376 239 41 41 -0.210417 0.109618 -0.971447 
-0.13423 -1.28797 9.1931 239 41 41 0.0250031 0.220265 -0.97512 
-0.258435 -1.20017 9.2027 239 41 41 0.0975209 0.11867 -0.988133 
-0.829798 -0.784312 9.27677 239 41 41 -0.343903 0.127422 -0.930319 
-0.932294 -0.712616 9.28589 239 41 41 0.16457 -0.0124846 -0.986286 
-1.00985 -0.659971 9.29001 239 41 41 -0.0659268 0.178602 -0.98171 
-1.12624 -0.577616 9.30289 239 41 41 -0.256626 0.31172 -0.914863 
-1.33576 -0.415845 9.35272 239 41 41 -0.0697362 0.0697362 -0.995125 
-1.40305 -0.305525 9.47936 239 41 41 -0.852975 -0.515191 0.0837363 
1.79834 -2.79858 8.86401 239 41 41 0.0109689 -0.274222 -0.961604 
1.73397 -2.74807 8.87336 239 41 41 -0.449834 -0.00131147 -0.893111 
1.64037 -2.6753 8.88596 239 41 41 -0.260066 -0.0615615 -0.963626 
1.40061 -2.48798 8.92126 239 41 41 -0.295928 -0.127209 -0.946702 
1.11412 -2.22518 9.03675 239 41 41 -0.0661092 0.088519 -0.993878 
0.85502 -2.02659 9.07335 239 41 41 -0.039656 0.323644 -0.945348 
0.602861 -1.83785 9.10313 239 41 41 -0.218969 0.249266 -0.943355 
0.47457 -1.7408 9.1211 239 41 41 0.0819737 -0.0752361 -0.993791 
0.373762 -1.66473 9.13532 239 41 41 0.111526 -0.0506936 -0.992468 
0.196993 -1.53522 9.15406 239 41 41 -0.226144 0.130517 -0.96531 
0.0731297 -1.44387 9.16902 239 41 41 0.138753 -0.166254 -0.976272 
-0.226059 -1.22372 9.20674 239 41 41 -0.0387264 0.283577 -0.958167 
-0.442628 -1.06605 9.23311 239 41 41 -0.217376 -0.0967512 -0.971281 
-0.790821 -0.815964 9.27289 239 41 41 -0.115026 0.244269 -0.962861 
-1.2712 -0.478117 9.32138 239 41 41 -0.333118 -0.0976611 -0.937814 
-1.36598 -0.389995 9.37245 239 41 41 -0.842409 -0.53272 0.0809735 
-1.38115 -0.34918 9.43118 239 41 41 -0.881346 -0.46112 0.102941 
-1.43759 -0.23605 9.57662 239 41 41 -0.904126 -0.426174 0.0305358 
-1.43711 0.363325 10.7128 239 41 41 -0.909551 -0.40773 0.080455 
-1.46302 0.413076 10.7758 239 41 41 -0.56341 -0.8016 0.200018 
1.26129 -2.33714 9.0268 239 41 41 -0.508502 0.52864 -0.67968 
1.1552 -2.25978 9.03371 239 41 41 0.344547 -0.185743 -0.92021 
1.05032 -2.17836 9.0499 239 41 41 0.0837331 -0.223705 -0.971054 
0.98086 -2.1254 9.0591 239 41 41 0.14796 0.00111248 -0.988993 
0.941536 -2.09602 9.0633 239 41 41 0.134979 0.0351626 -0.990224 
0.77007 -1.96711 9.08368 239 41 41 0.193037 0.0563524 -0.979572 
0.514496 -1.77852 9.10962 239 41 41 -0.122675 0.319496 -0.939613 
0.235808 -1.56965 9.14669 239 41 41 0.0120002 -0.110184 -0.993839 
0.0359137 -1.42483 9.16593 239 41 41 -0.0869489 0.148885 -0.985024 
-0.284252 -1.18446 9.21568 239 41 41 0.0858976 0.173005 -0.981168 
-0.71822 -0.874829 9.25934 239 41 41 -0.16272 0.374963 -0.912647 
-0.755663 -0.846859 9.26579 239 41 41 0.0260881 0.0448715 -0.998652 
-1.38624 -0.335848 9.45795 239 41 41 -0.802957 -0.574827 0.15759 
-1.41743 -0.273064 9.53889 239 41 41 -0.904268 -0.424671 0.0442086 
-1.44696 0.390012 10.7606 239 41 41 -0.929721 -0.353213 0.104205 
-1.47363 0.431718 10.8074 239 41 41 -0.985386 -0.134968 -0.103913 
1.87937 -2.8709 8.85349 239 41 41 -0.00593925 0.241134 -0.970474 
1.7051 -2.73492 8.87709 239 41 41 -0.0932549 -0.0932549 -0.991265 
1.52806 -2.59732 8.90112 239 41 41 0.0651846 0.290135 -0.954763 
1.43713 -2.52149 8.92315 239 41 41 0.20996 0.106866 -0.971852 
1.20782 -2.30565 9.02484 239 41 41 -0.264209 0.0804114 -0.961108 
0.822689 -2.01368 9.07258 239 41 41 -0.088162 0.16787 -0.981859 
0.727718 -1.94129 9.08593 239 41 41 0.231291 0.296563 -0.926582 
0.344841 -1.65513 9.13286 239 41 41 0.139899 0.0566534 -0.988544 
-0.474807 -1.05434 9.23082 239 41 41 0.00968455 -0.0957694 -0.995356 
-0.506929 -1.02946 9.23771 239 41 41 0.0396278 0.130206 -0.990695 
-1.19756 -0.539604 9.31043 239 41 41 -0.0679416 0.371681 -0.925871 
-1.36672 -0.381979 9.4021 239 41 41 -0.888274 -0.444843 0.114388 
1.83944 -2.84555 8.85675 239 41 41 -0.212462 -0.0249257 -0.976851 
1.49793 -2.57991 8.90269 239 41 41 -0.0386913 0.0345085 -0.998655 
1.32278 -2.39494 9.01598 239 41 41 0.0820251 0.148596 -0.98549 
0.876723 -2.05507 9.07289 239 41 41 -0.167989 0.109131 -0.97973 
0.676275 -1.90441 9.0971 239 41 41 -0.0711381 -0.184477 -0.980259 
0.445518 -1.73293 9.12325 239 41 41 0.0155112 0.232668 -0.972432 
0.408263 -1.70772 9.1231 239 41 41 0.0059803 0.252369 -0.967613 
0.274589 -1.6061 9.14361 239 41 41 -0.0273635 0.381787 -0.923845 
0.166083 -1.52582 9.1567 239 41 41 -0.127428 -0.0349581 -0.991232 
0.104793 -1.48138 9.16262 239 41 41 -0.08615 -0.0359867 -0.995632 
-0.0251782 -1.3845 9.18058 239 41 41 0.0994884 -0.0503031 -0.993766 
-0.0915539 -1.33718 9.186 239 41 41 0.0246992 0.19877 -0.979735 
-0.164544 -1.28083 9.20021 239 41 41 -0.0823995 0.114895 -0.989954 
-0.191797 -1.25931 9.20646 239 41 41 -0.0269126 0.188388 -0.981726 
-0.341116 -1.15285 9.21989 239 41 41 -0.0494422 0.0305069 -0.998311 
-0.408308 -1.10098 9.23365 239 41 41 -0.0611907 0.331992 -0.941295 
-0.539645 -1.00991 9.24169 239 41 41 0.0975209 0.11867 -0.988133 
-0.64467 -0.934485 9.25348 239 41 41 -0.228081 0.182732 -0.956341 
-0.859653 -0.778206 9.28247 239 41 41 0.274869 0.134115 -0.952082 
-0.897437 -0.754739 9.28019 239 41 41 -0.0987359 0.298841 -0.949181 
-0.963522 -0.707961 9.28714 239 41 41 -0.233165 0.340334 -0.910937 
-1.06231 -0.637964 9.29797 239 41 41 0.0421428 0.320541 -0.946297 
-1.23722 -0.515683 9.31481 239 41 41 0.233859 0.0083097 -0.972235 
-1.39341 -0.310009 9.51378 239 41 41 -0.856562 -0.501226 0.122779 
-1.43662 0.364725 10.7433 239 41 41 -0.753466 -0.651449 0.0889002 
-1.47396 0.439263 10.8396 239 41 41 -0.869387 -0.481089 0.112778 
1.76592 -2.795 8.86271 239 41 41 0.0849028 0.301731 -0.949605 
1.57604 -2.64037 8.90061 239 41 41 -0.0263782 0.578933 -0.814948 
1.35916 -2.4405 8.9876 239 41 41 -0.531842 0.840282 -0.105215 
1.08044 -2.21875 9.03877 239 41 41 0.13909 0.117319 -0.983306 
1.02013 -2.16932 9.05288 239 41 41 -0.22345 -0.0549466 -0.973166 
0.572869 -1.83197 9.10849 239 41 41 -0.0497488 -0.03493 -0.998151 
0.135167 -1.50696 9.16101 239 41 41 0.0478123 -0.332101 -0.942031 
-0.314458 -1.17598 9.21755 239 41 41 0.135556 -0.00110208 -0.990769 
-0.610423 -0.962596 9.25076 239 41 41 -0.0628356 -0.0716546 -0.995448 
-0.821326 -0.814169 9.26963 239 41 41 0.115157 0.211332 -0.970607 
-1.15724 -0.57856 9.30147 239 41 41 -0.086965 0.286855 -0.954019 
-1.28983 -0.469314 9.34592 239 41 41 -0.494481 -0.282338 -0.822055 
-1.36498 -0.375772 9.43146 239 41 41 -0.923186 -0.372799 0.0935386 
-1.38644 -0.332287 9.48781 239 41 41 -0.917534 -0.388969 0.0826729 
-1.41874 -0.265266 9.57567 239 41 41 -0.891025 -0.444815 0.0906363 
-1.42143 0.340543 10.7248 239 41 41 -0.991385 -0.12687 0.0325596 
-1.47298 0.448859 10.8683 239 41 41 -0.900369 -0.427503 0.0811019 
1.65475 -2.70615 8.89 239 41 41 0.223613 0.133134 -0.965543 
1.46733 -2.56268 8.91154 239 41 41 0.217604 -0.132622 -0.966985 
1.37039 -2.48771 8.92455 239 41 41 -0.172615 -0.244872 -0.954066 
1.3452 -2.46798 8.92843 239 41 41 -0.21358 0.33972 -0.915955 
1.34408 -2.42228 9.00982 239 41 41 -0.230098 -0.105515 -0.96743 
1.29441 -2.38269 9.01887 239 41 41 0.107105 0.00540932 -0.994233 
1.17797 -2.29619 9.029 239 41 41 -0.287667 0.273212 -0.917934 
0.911263 -2.09203 9.06501 239 41 41 -0.100736 -0.241002 -0.965282 
0.794378 -2.00484 9.07746 239 41 41 0.12933 0.0121592 -0.991527 
0.482966 -1.77051 9.11692 239 41 41 -0.0140756 0.098529 -0.995035 
0.309025 -1.64127 9.13757 239 41 41 -0.400991 0.0978363 -0.910843 
-0.12603 -1.3223 9.18652 239 41 41 -0.0239307 -0.316137 -0.948412 
-0.372557 -1.14038 9.21985 239 41 41 0.291181 0.234365 -0.927517 
-0.574167 -0.993002 9.24628 239 41 41 -0.0965258 0.139426 -0.985517 
-0.682133 -0.91628 9.25694 239 41 41 -0.0251377 0.228633 -0.973188 
-0.927649 -0.742989 9.28058 239 41 41 -0.273733 0.23162 -0.9335 
-1.04089 -0.661443 9.29528 239 41 41 -0.123342 -0.116158 -0.985543 
-1.09293 -0.62709 9.29628 239 41 41 0.205555 -0.0199682 -0.978442 
-1.34575 -0.416647 9.38509 239 41 41 -0.85876 -0.500346 0.110391 
-1.36932 -0.361641 9.46077 239 41 41 -0.846243 -0.51593 0.133002 
-1.4416 0.385586 10.7952 239 41 41 -0.919519 -0.370304 0.131756 
-1.44809 0.403666 10.8217 239 41 41 -0.28422 -0.938618 0.195488 
-1.48172 0.463817 10.8954 239 41 41 -0.924175 0.166884 -0.343585 
1.6118 -2.67702 8.89635 239 41 41 -0.0212255 0.132939 -0.990897 
1.54344 -2.63005 8.89447 239 41 41 0.212587 -0.0570949 -0.975473 
1.40508 -2.5212 8.916 239 41 41 -0.0417484 0.120732 -0.991807 
1.22796 -2.34 9.02068 239 41 41 -0.0601087 0.107742 -0.99236 
1.12105 -2.25808 9.03471 239 41 41 0.228961 0.27391 -0.934104 
0.950478 -2.12612 9.06025 239 41 41 0.1554 0.188792 -0.969644 
0.64574 -1.89638 9.09766 239 41 41 0.135556 -0.00110208 -0.990769 
0.610225 -1.86999 9.10154 239 41 41 0.111526 -0.0506936 -0.992468 
0.20645 -1.56624 9.15608 239 41 41 0.121051 0.0680192 -0.990313 
0.00842571 -1.42097 9.17835 239 41 41 0.174557 -0.0102681 -0.984594 
-0.0546896 -1.37507 9.18503 239 41 41 -0.119399 -0.192296 -0.974046 
-0.221697 -1.25363 9.20343 239 41 41 0.0157291 0.255296 -0.966735 
-0.785931 -0.845933 9.26892 239 41 41 -0.0100056 0.136743 -0.990556 
-0.992938 -0.700762 9.28765 239 41 41 0.218493 0.197045 -0.955737 
-1.11994 -0.611854 9.2996 239 41 41 0.0153111 0.215533 -0.976376 
-1.32954 -0.446012 9.35685 239 41 41 -0.912244 -0.280803 -0.298262 
-1.4019 -0.296325 9.55296 239 41 41 -0.771125 -0.632755 0.0706264 
1.81094 -2.83957 8.86467 239 41 41 -0.795517 -0.103636 -0.597003 
1.74011 -2.78429 8.87416 239 41 41 -0.081047 -0.132729 -0.987833 
1.67552 -2.73404 8.88268 239 41 41 0.112583 -0.0120234 -0.99357 
1.26288 -2.36835 9.02154 239 41 41 0.0979695 -0.240471 -0.9657 
0.990114 -2.1603 9.05595 239 41 41 -0.04819 0.172779 -0.983781 
0.737195 -1.97099 9.08373 239 41 41 -0.0011865 -0.245605 -0.969369 
0.684602 -1.93219 9.08878 239 41 41 0.0445344 -0.133603 -0.990034 
0.544094 -1.82378 9.11155 239 41 41 -0.145472 -0.123468 -0.981628 
0.370798 -1.69892 9.12432 239 41 41 0.394537 -0.00385541 -0.918872 
0.244256 -1.60106 9.14682 239 41 41 0.0257152 0.265723 -0.963706 
-0.253429 -1.23614 9.20445 239 41 41 -0.0736248 0.233353 -0.969601 
-0.439651 -1.09836 9.23091 239 41 41 -0.0843113 0.186951 -0.978745 
-1.18771 -0.568637 9.30585 239 41 41 -0.172817 0.384197 -0.906933 
-1.26273 -0.50557 9.33339 239 41 41 -0.831913 -0.459041 -0.311772 
-1.34828 -0.406089 9.41755 239 41 41 -0.855439 -0.499856 0.135529 
-1.432 0.358936 10.7743 239 41 41 -0.8185 -0.568203 0.0848708 
1.89717 -2.90964 8.85675 239 41 41 0.235829 -0.470136 -0.850504 
1.71086 -2.76855 8.87368 239 41 41 0.17698 0.200578 -0.963559 
1.43835 -2.55258 8.91776 239 41 41 -0.100736 -0.241002 -0.965282 
1.34125 -2.46108 8.96054 239 41 41 0.210183 -0.699052 -0.683483 
1.05084 -2.21181 9.04674 239 41 41 -0.124478 0.156521 -0.979799 
0.833781 -2.04798 9.07235 239 41 41 0.134318 -0.149105 -0.979656 
0.516538 -1.80853 9.11303 239 41 41 0.0819824 -0.0404446 -0.995813 
0.174104 -1.55544 9.15146 239 41 41 -0.154184 0.269488 -0.950581 
0.0755854 -1.47812 9.17181 239 41 41 -0.136974 0.352813 -0.925614 
0.0449579 -1.45756 9.17173 239 41 41 -0.223688 0.282776 -0.932739 
-0.155693 -1.31317 9.19018 239 41 41 -0.224556 0.420858 -0.878893 
-0.281156 -1.21988 9.20818 239 41 41 0.0430628 0.0916464 -0.99486 
-0.402272 -1.13185 9.22235 239 41 41 -0.0915172 0.327605 -0.940372 
-0.711838 -0.904834 9.26505 239 41 41 -0.169021 0.300939 -0.938545 
-0.747782 -0.879467 9.26837 239 41 41 -0.0136405 0.0640055 -0.997856 
-1.02152 -0.687777 9.29241 239 41 41 0.147183 -0.0921388 -0.984808 
-1.45803 0.416668 10.862 239 41 41 -0.797067 -0.589265 0.132102 
1.85044 -2.88176 8.85577 239 41 41 -0.104292 0.00322554 -0.994541 
1.78309 -2.8262 8.87001 239 41 41 0.186263 0.183658 -0.965182 
1.14652 -2.28928 9.03466 239 41 41 -0.048149 -0.00307334 -0.998835 
1.09252 -2.24613 9.04501 239 41 41 -0.39345 0.269837 -0.878855 
0.880476 -2.08562 9.07044 239 41 41 0.0150423 -0.186293 -0.982379 
0.766187 -1.99818 9.08657 239 41 41 -0.262081 0.113438 -0.958356 
0.580694 -1.86188 9.10343 239 41 41 0.0310014 0.0652098 -0.99739 
0.453006 -1.76486 9.12177 239 41 41 0.118689 -0.218234 -0.968652 
0.414713 -1.73712 9.12487 239 41 41 -0.296473 0.132809 -0.945762 
0.346265 -1.68516 9.13498 239 41 41 -0.221628 0.266232 -0.938084 
0.278052 -1.63634 9.13972 239 41 41 -0.0339926 -0.300897 -0.953051 
-0.469577 -1.08525 9.23395 239 41 41 -0.174303 0.0581011 -0.982976 
-0.506326 -1.05981 9.23606 239 41 41 -0.235981 -0.0605397 -0.96987 
-0.851858 -0.809751 9.27895 239 41 41 0.303055 0.212844 -0.9289 
-0.887264 -0.788223 9.27583 239 41 41 -0.0172348 0.173497 -0.984684 
-0.959069 -0.738496 9.28116 239 41 41 -0.121497 -0.0510967 -0.991276 
-1.22664 -0.549216 9.31016 239 41 41 -0.00588037 0.222278 -0.974966 
-1.32909 -0.442342 9.38755 239 41 41 -0.846243 -0.51593 0.133002 
-1.35445 -0.389995 9.45622 239 41 41 -0.848887 -0.517403 0.108093 
-1.36731 -0.360978 9.49577 239 41 41 -0.901772 -0.427011 0.0668484 
-1.37797 -0.338934 9.52473 239 41 41 -0.805344 -0.584781 0.0972217 
-1.40191 -0.292257 9.58442 239 41 41 -0.769349 -0.638573 0.018086 
-1.40345 0.314528 10.7427 239 41 41 -0.852777 -0.517304 0.071887 
-1.42943 0.370918 10.8187 239 41 41 -0.938376 -0.332369 0.0947719 
-1.47199 0.452304 10.9223 239 41 41 -0.558441 -0.801509 0.213838 
-1.47873 0.470683 10.9493 239 41 41 -0.909074 -0.279602 -0.30888 
1.62432 -2.70767 8.89005 239 41 41 0.0365687 -0.103057 -0.994003 
1.581 -2.67381 8.89612 239 41 41 0.0922446 -0.188179 -0.977793 
1.51439 -2.62459 8.90044 239 41 41 0.292836 -0.0735316 -0.953331 
1.1907 -2.33113 9.02255 239 41 41 0.158565 -0.249174 -0.95539 
0.920294 -2.12206 9.06212 239 41 41 -0.0725546 -0.0747871 -0.994557 
0.104088 -1.51206 9.16018 239 41 41 -0.152309 0.0696606 -0.985875 
-0.0214605 -1.41638 9.18114 239 41 41 0.209754 0.0419508 -0.976854 
-0.087929 -1.36906 9.18624 239 41 41 0.0383012 -0.165972 -0.985386 
-0.193685 -1.29074 9.20043 239 41 41 -0.211432 0.319277 -0.923774 
-0.310157 -1.20592 9.21386 239 41 41 -0.245544 0.0354267 -0.968738 
-0.534358 -1.04425 9.23826 239 41 41 0.248066 0.188422 -0.950242 
-0.641491 -0.966765 9.25106 239 41 41 -0.12561 -0.0656862 -0.989903 
-1.38495 -0.322631 9.55518 239 41 41 -0.842409 -0.53272 0.0809735 
-1.41395 0.332563 10.7735 239 41 41 -0.969001 -0.239459 0.0607952 
-1.45897 0.423031 10.8915 239 41 41 -0.783778 -0.604629 0.141827 
1.47202 -2.59595 8.90665 239 41 41 0.087785 -0.0566713 -0.994526 
1.37591 -2.51843 8.92504 239 41 41 -0.391878 0.321186 -0.862132 
1.31252 -2.42708 9.01066 239 41 41 0.17945 0.221986 -0.958395 
1.01881 -2.20298 9.04685 239 41 41 0.00294405 0.00098135 -0.999995 
0.959589 -2.15619 9.05749 239 41 41 -0.12288 -0.322729 -0.938481 
0.851611 -2.07452 9.07055 239 41 41 -0.0683542 0.30308 -0.950511 
0.803833 -2.03939 9.07461 239 41 41 0.160821 -0.160821 -0.973793 
0.707735 -1.96468 9.09052 239 41 41 -0.239124 0.103578 -0.965449 
0.31612 -1.67316 9.13525 239 41 41 -0.0114132 0.348737 -0.937151 
0.214583 -1.59583 9.15111 239 41 41 0.193037 0.0563524 -0.979572 
0.137607 -1.53939 9.15934 239 41 41 0.198682 0.188156 -0.961833 
-0.116065 -1.35574 9.18378 239 41 41 -0.0261625 -0.149013 -0.988489 
-0.343751 -1.18641 9.21638 239 41 41 0.19471 -0.138715 -0.971003 
-0.605641 -0.993762 9.25253 239 41 41 0.063512 0.180949 -0.98144 
-0.671547 -0.945664 9.26134 239 41 41 0.10627 0.101599 -0.989133 
-0.820226 -0.844436 9.268 239 41 41 0.328278 -0.0240822 -0.944274 
-1.07156 -0.666846 9.2934 239 41 41 0.170415 0.106663 -0.979582 
-1.15246 -0.609962 9.30153 239 41 41 0.168447 0.262777 -0.950039 
-1.43805 0.393047 10.869 239 41 41 -0.859934 -0.483621 0.163167 
1.86965 -2.91492 8.84573 239 41 41 0.260599 0.0407572 -0.964586 
1.82079 -2.87085 8.8627 239 41 41 -0.0787589 -0.0610105 -0.995025 
1.34266 -2.49921 8.92587 239 41 41 0.233021 -0.0325987 -0.971925 
1.3363 -2.4518 9.00417 239 41 41 -0.562421 0.602955 -0.565798 
0.654441 -1.92825 9.09837 239 41 41 -0.249715 0.364968 -0.896906 
0.616186 -1.90243 9.09759 239 41 41 -0.188191 -0.11092 -0.975849 
0.486991 -1.80268 9.11874 239 41 41 0.305515 -0.028917 -0.951748 
0.382918 -1.72739 9.12684 239 41 41 -0.0460867 -0.183165 -0.982001 
0.0115378 -1.45132 9.17311 239 41 41 -0.0585512 0.076227 -0.99537 
-0.561931 -1.02984 9.24671 239 41 41 0.225963 0.0679125 -0.971766 
-0.918558 -0.778455 9.27877 239 41 41 0.202288 -0.0593541 -0.977526 
-1.24318 -0.537704 9.33481 239 41 41 -0.76779 -0.538261 -0.347526 
-1.29117 -0.499376 9.34866 239 41 41 -0.216712 -0.184803 -0.958584 
-1.31487 -0.475077 9.36581 239 41 41 -0.83373 -0.547799 0.0693595 
-1.3313 -0.436996 9.41835 239 41 41 -0.825851 -0.552024 0.115066 
-1.34192 -0.415671 9.44605 239 41 41 -0.863875 -0.496268 0.0862461 
-1.38653 0.279597 10.724 239 41 41 -0.91299 -0.407932 -0.0064751 
1.75244 -2.82028 8.87498 239 41 41 -0.0785302 0.132446 -0.988074 
1.6801 -2.76531 8.8819 239 41 41 0.249551 -0.00358208 -0.968355 
1.64347 -2.73572 8.88864 239 41 41 -0.0367132 -0.107915 -0.993482 
1.54806 -2.66356 8.89754 239 41 41 0.158114 -0.0357777 -0.986772 
1.40744 -2.5522 8.92027 239 41 41 0.019065 0.137941 -0.990257 
1.28486 -2.41232 9.0189 239 41 41 0.165637 -0.181045 -0.969426 
1.23179 -2.36838 9.03154 239 41 41 0.192667 0.141629 -0.97099 
1.0578 -2.2423 9.04072 239 41 41 -0.483107 -0.192944 -0.854038 
0.551098 -1.85591 9.10932 239 41 41 -0.227097 -0.376542 -0.898133 
0.248494 -1.631 9.14435 239 41 41 0.134538 0.179803 -0.974459 
-0.0507939 -1.40988 9.1802 239 41 41 0.075498 0.27512 -0.958441 
-0.37352 -1.173 9.22007 239 41 41 0.0260881 0.0448715 -0.998652 
-0.431506 -1.12944 9.22957 239 41 41 -0.0117683 0.417121 -0.908775 
-0.590368 -1.01819 9.241 239 41 41 -0.118038 0.147244 -0.982032 
-0.779613 -0.879686 9.26725 239 41 41 0.00722865 0.0526659 -0.998586 
-0.989157 -0.732907 9.28539 239 41 41 -0.0843971 0.355004 -0.931048 
-1.35047 -0.392056 9.48856 239 41 41 -0.906103 -0.409342 0.106845 
-1.36167 -0.365865 9.5249 239 41 41 -0.881271 -0.463753 0.0910694 
-1.41339 0.341044 10.8181 239 41 41 -0.862941 -0.483305 0.147474 
-1.42129 0.363731 10.8519 239 41 41 -0.588092 -0.786669 0.187884 
-1.45759 0.433842 10.9419 239 41 41 -0.752419 -0.640838 0.152293 
1.59238 -2.7021 8.89258 239 41 41 0.169866 -0.142184 -0.975156 
1.44168 -2.58352 8.91527 239 41 41 -0.0991587 0.0207035 -0.994856 
1.31523 -2.48446 8.93418 239 41 41 -0.572726 0.779849 -0.252627 
1.25691 -2.39769 9.01826 239 41 41 0.0759664 0.23039 -0.970129 
1.16471 -2.32357 9.03625 239 41 41 -0.425635 0.255987 -0.867932 
1.11556 -2.28714 9.04032 239 41 41 0.0645125 0.102994 -0.992588 
0.989322 -2.19385 9.05067 239 41 41 -0.0766298 -0.104079 -0.991613 
0.888445 -2.11577 9.06587 239 41 41 -0.131311 -0.0258133 -0.991005 
0.775202 -2.02802 9.08363 239 41 41 -0.0153111 0.215533 -0.976376 
0.182481 -1.58676 9.15145 239 41 41 0.0991587 0.0207035 -0.994856 
-0.224667 -1.28402 9.20574 239 41 41 -0.145777 0.126177 -0.981238 
-0.703554 -0.939519 9.25642 239 41 41 0.0396278 0.130206 -0.990695 
-0.740185 -0.914712 9.25773 239 41 41 -0.318324 0.034242 -0.947363 
-1.05043 -0.695586 9.28806 239 41 41 0.0031886 0.0903436 -0.995906 
-1.10107 -0.655813 9.301 239 41 41 0.0260881 0.0448715 -0.998652 
-1.18388 -0.601041 9.30272 239 41 41 -0.0212255 0.132939 -0.990897 
-1.36962 -0.350983 9.55152 239 41 41 -0.806858 -0.584575 0.0851603 
-1.39498 0.300787 10.7726 239 41 41 -0.733197 -0.660333 0.162427 
-1.43995 0.397825 10.9038 239 41 41 -0.851473 -0.480743 0.209477 
-1.46326 0.446766 10.9692 239 41 41 -0.859934 -0.483621 0.163167 
1.78633 -2.85765 8.86754 239 41 41 0.259704 -0.104657 -0.96 
1.7119 -2.80012 8.87626 239 41 41 0.102029 0.0791012 -0.991632 
0.73539 -2.00157 9.08998 239 41 41 0.16272 0.374963 -0.912647 
0.584398 -1.89214 9.10056 239 41 41 -0.107456 0.032126 -0.993691 
0.521404 -1.8459 9.10633 239 41 41 -0.00789787 0.159086 -0.987233 
0.45771 -1.79478 9.12046 239 41 41 0.264971 0.127871 -0.95574 
0.420749 -1.76937 9.12079 239 41 41 -0.115878 0.353087 -0.928387 
0.283628 -1.66865 9.13456 239 41 41 0.202288 -0.0593541 -0.977526 
0.0715318 -1.51007 9.16262 239 41 41 0.0723783 0.338204 -0.938285 
0.047322 -1.48997 9.16971 239 41 41 0.0755978 0.0493029 -0.995919 
-0.143814 -1.34736 9.19626 239 41 41 -0.115878 0.353087 -0.928387 
-0.252939 -1.26796 9.20831 239 41 41 0.01346 0.277765 -0.960555 
-0.281111 -1.25032 9.20608 239 41 41 0.301313 0.0960517 -0.948675 
-0.881871 -0.817757 9.27297 239 41 41 -0.025021 0.092469 -0.995401 
-0.949292 -0.768283 9.28314 239 41 41 -0.110937 0.0969238 -0.98909 
-1.01754 -0.719764 9.29062 239 41 41 0.0544074 0.282159 -0.957824 
-1.1295 -0.642036 9.29968 239 41 41 -0.0172348 0.173497 -0.984684 
-1.21687 -0.579016 9.3116 239 41 41 -0.821212 -0.468138 -0.326278 
-1.31061 -0.471852 9.4006 239 41 41 -0.763418 -0.636917 0.107379 
-1.47196 0.462053 10.9973 239 41 41 -0.734748 -0.6697 0.107921 
1.52294 -2.6508 8.91345 239 41 41 0.180627 -0.13768 -0.973868 
1.4848 -2.6241 8.91315 239 41 41 0.165521 0.0881975 -0.982255 
1.20133 -2.36373 9.02594 239 41 41 0.145426 0.0997548 -0.984327 
1.08544 -2.27554 9.03963 239 41 41 0.139899 0.0566534 -0.988544 
0.92898 -2.15438 9.06278 239 41 41 -0.0772438 0.153299 -0.985156 
0.67801 -1.96321 9.09605 239 41 41 0.0924742 0.154924 -0.983589 
0.346384 -1.71833 9.12952 239 41 41 0.075498 0.27512 -0.958441 
-0.0797477 -1.40023 9.18559 239 41 41 -0.0364554 -0.0302059 -0.998879 
-0.184284 -1.3244 9.19635 239 41 41 0.0645125 0.102994 -0.992588 
-0.399229 -1.16218 9.23185 239 41 41 0.0904797 -0.123381 -0.988226 
-0.461183 -1.12439 9.22541 239 41 41 0.233859 0.0083097 -0.972235 
-0.498651 -1.09258 9.2386 239 41 41 -0.324253 0.0555493 -0.944338 
-0.810361 -0.873008 9.26489 239 41 41 -0.120506 -0.090087 -0.988617 
-0.850482 -0.843657 9.27062 239 41 41 0.248526 0.354408 -0.90146 
-1.32507 -0.441462 9.44882 239 41 41 -0.879784 -0.461922 0.112283 
-1.33342 -0.422212 9.47545 239 41 41 -0.863666 -0.498539 0.0744298 
-1.35837 0.242311 10.7237 239 41 41 -0.805344 -0.584781 0.0972217 
-1.39792 0.310205 10.8055 239 41 41 -0.378812 -0.917197 0.123496 
-1.44326 0.407404 10.9368 239 41 41 -0.931961 -0.353319 0.0813299 
1.88127 -2.9373 8.86221 239 41 41 0.349902 -0.422079 -0.836312 
1.82801 -2.9021 8.85741 239 41 41 0.134147 0.0937841 -0.986514 
1.02909 -2.23525 9.04992 239 41 41 -0.39517 -0.229406 -0.889502 
0.85685 -2.10473 9.07046 239 41 41 -0.330429 0.0639962 -0.941659 
0.821465 -2.07503 9.08018 239 41 41 -0.2504 -0.480829 -0.840299 
0.495693 -1.83225 9.11516 239 41 41 -0.184826 -0.169316 -0.968076 
0.149955 -1.57503 9.15617 239 41 41 -0.198436 0.20909 -0.957551 
0.106965 -1.54426 9.15934 239 41 41 0.0619952 -0.27202 -0.960293 
-0.0186179 -1.44858 9.17993 239 41 41 0.178602 -0.0659268 -0.98171 
-0.63672 -0.997874 9.25278 239 41 41 -0.153561 -0.100359 -0.98303 
-0.671448 -0.975137 9.2524 239 41 41 0.256971 0.170865 -0.951195 
-1.27349 -0.533626 9.34369 239 41 41 -0.348296 -0.148477 -0.925551 
-1.30014 -0.498797 9.37743 239 41 41 -0.901772 -0.427011 0.0668484 
-1.34681 -0.394565 9.51987 239 41 41 -0.900369 -0.427503 0.0811019 
-1.37527 0.263348 10.7525 239 41 41 -0.790568 -0.603521 0.103753 
-1.40745 0.337182 10.855 239 41 41 -0.898533 -0.426209 0.104806 
-1.42911 0.365711 10.8833 239 41 41 -0.962187 -0.256839 0.0907241 
-1.47535 0.472037 11.0312 239 41 41 -0.900447 -0.412646 -0.137549 
1.37709 -2.54946 8.92768 239 41 41 0.12933 0.0121592 -0.991527 
1.13186 -2.31924 9.0352 239 41 41 0.21449 0.0674111 -0.974397 
0.957773 -2.18732 9.05521 239 41 41 -0.123128 -0.239775 -0.962989 
0.393216 -1.75839 9.13044 239 41 41 0.158344 -0.282853 -0.946003 
0.321792 -1.70461 9.13998 239 41 41 -0.0348416 0.222265 -0.974364 
0.218377 -1.62778 9.15223 239 41 41 0.127638 0.261856 -0.95663 
-0.309301 -1.24075 9.21231 239 41 41 -0.125402 0.137577 -0.982521 
-0.33785 -1.22023 9.2151 239 41 41 -0.464526 0.1529 -0.87226 
-0.527653 -1.08247 9.23701 239 41 41 -0.0705686 -0.0115859 -0.99744 
-0.562443 -1.05946 9.23692 239 41 41 0.165521 0.0881975 -0.982255 
-0.769206 -0.907837 9.26571 239 41 41 0.0129597 0.00697831 -0.999892 
-0.911742 -0.810718 9.27237 239 41 41 0.132386 0.157131 -0.978664 
-1.23306 -0.567237 9.33728 239 41 41 -0.632235 -0.215923 -0.74408 
-1.31258 -0.466391 9.43213 239 41 41 -0.787894 -0.60528 0.113398 
-1.35072 -0.379861 9.55126 239 41 41 -0.838138 -0.535196 0.105308 
-1.44692 0.41646 10.9686 239 41 41 -0.834506 -0.535316 0.130529 
1.75433 -2.85166 8.87079 239 41 41 -0.421444 0.434362 -0.796062 
1.72397 -2.83093 8.86933 239 41 41 0.0116164 0.391087 -0.92028 
1.6506 -2.76921 8.88702 239 41 41 0.0254206 0.243312 -0.969615 
1.61368 -2.74198 8.88902 239 41 41 0.268332 -0.276941 -0.92266 
1.56524 -2.69895 8.90504 239 41 41 0.177082 0.177082 -0.968134 
1.34799 -2.52993 8.93427 239 41 41 0.133969 -0.269265 -0.953703 
1.30441 -2.45655 9.0128 239 41 41 -0.0251676 0.00704694 -0.999658 
1.17045 -2.35673 9.02403 239 41 41 -0.141074 0.420372 -0.896318 
0.8993 -2.14545 9.06588 239 41 41 0.0339556 0.183829 -0.982372 
0.780553 -2.05851 9.07477 239 41 41 0.273477 0.293735 -0.915931 
0.704451 -1.99552 9.09429 239 41 41 0.103617 0.16213 -0.981314 
0.626113 -1.93869 9.09971 239 41 41 0.117352 0.278217 -0.953322 
0.554351 -1.88624 9.10562 239 41 41 -0.0481585 -0.250671 -0.966874 
0.253407 -1.66067 9.14319 239 41 41 -0.0962625 0.257984 -0.961342 
0.0165198 -1.48265 9.17634 239 41 41 0.150298 0.120971 -0.981212 
-0.108454 -1.39053 9.19138 239 41 41 -0.129842 0.295826 -0.946376 
-0.211936 -1.3144 9.20407 239 41 41 -0.00391011 0.423596 -0.905843 
-0.979418 -0.762693 9.28726 239 41 41 0.0926881 0.353289 -0.930911 
-1.33337 -0.418875 9.50564 239 41 41 -0.85876 -0.500346 0.110391 
-1.37264 0.26759 10.7824 239 41 41 -0.76845 -0.608292 0.198657 
-1.39437 0.309237 10.8359 239 41 41 -0.897799 -0.440356 -0.00657247 
1.67883 -2.79684 8.88148 239 41 41 0.0289182 -0.543937 -0.838627 
1.49329 -2.65231 8.90578 239 41 41 0.0548389 0.00517348 -0.998482 
1.44944 -2.61661 8.91454 239 41 41 0.0858976 0.173005 -0.981168 
1.40951 -2.58792 8.91558 239 41 41 0.0755978 0.0493029 -0.995919 
1.2279 -2.39993 9.02673 239 41 41 -0.0436601 0.0500493 -0.997792 
0.996107 -2.22652 9.04841 239 41 41 0.291723 -0.0135399 -0.956407 
0.74645 -2.03613 9.08079 239 41 41 -0.2334 -0.236162 -0.943267 
0.647912 -1.95973 9.09659 239 41 41 0.0684286 -0.128739 -0.989315 
0.18716 -1.61647 9.14975 239 41 41 -0.154816 -0.0332568 -0.987383 
-0.366516 -1.2062 9.22127 239 41 41 0.0483099 0.0547512 -0.997331 
-0.42894 -1.16184 9.22654 239 41 41 0.0504783 -0.165522 -0.984913 
-0.621229 -1.02345 9.24709 239 41 41 -0.0650564 0.219719 -0.973392 
-1.08127 -0.696972 9.29341 239 41 41 -0.047656 0.154592 -0.986828 
-1.16247 -0.640605 9.29998 239 41 41 -0.188634 0.199186 -0.961635 
-1.28413 -0.524493 9.37133 239 41 41 -0.852975 -0.515191 0.0837363 
-1.31604 -0.447533 9.47992 239 41 41 -0.912386 -0.407999 0.0330096 
-1.35467 -0.370609 9.58016 239 41 41 -0.835753 -0.536335 0.117732 
-1.3433 0.211636 10.7199 239 41 41 -0.671529 -0.661773 0.333325 
-1.40979 0.340866 10.8873 239 41 41 -0.729145 -0.679662 0.0800458 
-1.42302 0.369333 10.9259 239 41 41 -0.810241 -0.583203 0.0581784 
-1.45621 0.438396 11.0184 239 41 41 -0.928738 -0.347076 0.130325 
1.84801 -2.93105 8.86437 239 41 41 0.0482175 -0.0503605 -0.997567 
1.79972 -2.8938 8.86963 239 41 41 -0.00610602 0.28454 -0.958645 
1.52224 -2.67947 8.90181 239 41 41 0.027289 0.00909634 -0.999586 
1.31781 -2.51766 8.93442 239 41 41 0.0856181 -0.0924675 -0.992028 
1.28808 -2.4888 8.94909 239 41 41 0.218974 -0.850221 -0.478721 
1.2748 -2.44193 9.01818 239 41 41 0.0510203 -0.0177009 -0.998541 
1.05687 -2.27319 9.04857 239 41 41 -0.400991 0.0978363 -0.910843 
0.594286 -1.92624 9.09839 239 41 41 -0.00112081 -0.158034 -0.987433 
0.465063 -1.82668 9.1188 239 41 41 -0.0359209 -0.421738 -0.906006 
0.361819 -1.74854 9.13298 239 41 41 -0.0965258 0.139426 -0.985517 
0.292386 -1.69993 9.13537 239 41 41 0.0950003 0.403407 -0.910076 
-0.0488472 -1.44415 9.18177 239 41 41 0.16457 -0.0124846 -0.986286 
-0.139253 -1.38012 9.18784 239 41 41 0.268028 -0.0208058 -0.963187 
-0.490425 -1.12209 9.23227 239 41 41 0.0354893 0.248425 -0.968001 
-0.592169 -1.0479 9.24501 239 41 41 -0.417567 0.0331402 -0.908042 
-0.734808 -0.945334 9.26086 239 41 41 0.0463476 0.191332 -0.98043 
-0.942339 -0.800447 9.277 239 41 41 -0.236252 0.137052 -0.961978 
-1.01353 -0.750639 9.28311 239 41 41 -0.138508 0.112011 -0.984007 
-1.11026 -0.683716 9.29027 239 41 41 0.158794 0.0428861 -0.98638 
-1.20293 -0.604388 9.3268 239 41 41 -0.903935 -0.418156 -0.0897035 
-1.28898 -0.507289 9.40631 239 41 41 -0.827412 -0.552091 0.102883 
-1.35832 0.235437 10.7565 239 41 41 -0.634203 -0.764296 0.116788 
-1.38041 0.282929 10.821 239 41 41 -0.829787 -0.535873 0.155863 
-1.42689 0.392339 10.9751 239 41 41 -0.870416 -0.463734 0.165306 
-1.46818 0.463266 11.0612 239 41 41 -0.8062 0.574584 -0.141048 
1.58616 -2.73148 8.89771 239 41 41 -0.132729 -0.081047 -0.987833 
1.1024 -2.31459 9.03899 239 41 41 0.0368936 -0.316776 -0.947783 
0.524802 -1.87553 9.11213 239 41 41 0.0155112 0.232668 -0.972432 
0.427076 -1.80351 9.12161 239 41 41 -0.298262 0.280803 -0.912244 
0.12035 -1.57181 9.16462 239 41 41 -0.172661 0.12049 -0.977584 
0.0770519 -1.54122 9.167 239 41 41 -0.106364 -0.393684 -0.913071 
-0.077456 -1.43086 9.17842 239 41 41 0.0524723 -0.421124 -0.905484 
-0.174139 -1.35765 9.19396 239 41 41 -0.125402 0.137577 -0.982521 
-0.246324 -1.30457 9.20283 239 41 41 -0.198211 0.227876 -0.953302 
-0.394798 -1.19529 9.22198 239 41 41 -0.095582 -0.123903 -0.98768 
-0.701206 -0.973593 9.25707 239 41 41 -0.179343 0.224511 -0.957826 
-0.799606 -0.902045 9.26983 239 41 41 0.14756 0.296474 -0.943573 
-0.84049 -0.877063 9.26612 239 41 41 0.0956245 0.243524 -0.96517 
-0.882013 -0.848972 9.26765 239 41 41 0.283876 0.00609175 -0.958842 
-1.04589 -0.732062 9.28593 239 41 41 -0.181796 0.0220008 -0.98309 
-1.30302 -0.471951 9.46488 239 41 41 -0.874063 -0.479686 0.0769175 
-1.33017 -0.416613 9.53788 239 41 41 -0.904791 -0.425397 0.0197553 
-1.31971 0.194244 10.7341 239 41 41 0.77128 0.363812 -0.522272 
-1.39342 0.311048 10.8686 239 41 41 -0.822657 -0.564957 0.0637169 
-1.46421 0.470739 11.0902 239 41 41 -0.937808 -0.310777 0.154704 
1.24696 -2.42964 9.02154 239 41 41 0.202739 0.0619142 -0.977274 
1.14251 -2.34939 9.03473 239 41 41 0.375276 -0.138113 -0.916566 
0.869082 -2.14142 9.06736 239 41 41 -0.0636109 0.00521401 -0.997961 
0.823713 -2.10826 9.07054 239 41 41 0.106743 -0.137926 -0.984674 
0.671481 -1.99254 9.09015 239 41 41 -0.0327494 -0.134386 -0.990388 
0.159237 -1.60597 9.15795 239 41 41 -0.183977 0.0510387 -0.981605 
0.0432084 -1.52368 9.16489 239 41 41 0.0458202 -0.362634 -0.930804 
-0.0151737 -1.47871 9.17535 239 41 41 0.106456 0.204145 -0.973135 
-0.281778 -1.28265 9.20732 239 41 41 -0.134593 0.15188 -0.979192 
-1.26344 -0.563219 9.34591 239 41 41 -0.899893 -0.332473 -0.282232 
-1.29827 -0.495662 9.43286 239 41 41 -0.856562 -0.501226 0.122779 
1.76946 -2.88517 8.87143 239 41 41 0.148066 -0.0378773 -0.988252 
1.6972 -2.82534 8.88686 239 41 41 0.0658237 0.00731375 -0.997804 
1.46364 -2.64688 8.91069 239 41 41 0.0763849 -0.0608865 -0.995218 
1.38243 -2.58019 8.92794 239 41 41 0.228961 0.27391 -0.934104 
1.19763 -2.39513 9.0298 239 41 41 0.132548 -0.220055 -0.96644 
0.966388 -2.21969 9.05577 239 41 41 0.157067 -0.23362 -0.959558 
0.927017 -2.19274 9.05496 239 41 41 -0.103643 0.337848 -0.935477 
0.793724 -2.08757 9.07862 239 41 41 0.216443 -0.0754459 -0.973376 
0.713886 -2.03033 9.0824 239 41 41 0.01346 0.277765 -0.960555 
0.564356 -1.91553 9.10438 239 41 41 -0.0269126 0.188388 -0.981726 
0.495321 -1.8628 9.11435 239 41 41 -0.208347 -0.0345261 -0.977445 
0.399366 -1.79055 9.12656 239 41 41 0.112583 -0.0120234 -0.99357 
0.222863 -1.65757 9.15023 239 41 41 -0.451931 -0.0145784 -0.891934 
-0.460512 -1.15598 9.22927 239 41 41 -0.27002 -0.0435516 -0.961869 
-0.667788 -1.00694 9.25123 239 41 41 0.197185 -0.155944 -0.967884 
-0.764477 -0.937682 9.26156 239 41 41 0.0556075 0.173921 -0.983188 
-1.13843 -0.671487 9.30178 239 41 41 -0.0100056 0.136743 -0.990556 
-1.1897 -0.632574 9.31238 239 41 41 -0.801998 -0.594756 -0.0553591 
-1.31742 -0.446627 9.51171 239 41 41 -0.881271 -0.463753 0.0910694 
-1.33965 -0.404405 9.56563 239 41 41 -0.863666 -0.498539 0.0744298 
-1.33976 0.210096 10.7583 239 41 41 -0.81418 -0.579562 0.0349134 
-1.35871 0.241566 10.7957 239 41 41 -0.89587 -0.443248 0.0307997 
-1.37675 0.281968 10.8517 239 41 41 -0.886372 -0.44532 0.126625 
-1.41347 0.3643 10.9658 239 41 41 -0.913953 -0.405769 0.00648193 
-1.44183 0.419439 11.0375 239 41 41 -0.816857 -0.576361 0.0234967 
1.86029 -2.95988 8.86168 239 41 41 0.283206 -0.456534 -0.843428 
1.53639 -2.70759 8.90204 239 41 41 -0.0515009 0.131613 -0.989962 
1.34979 -2.56315 8.92528 239 41 41 0.0750216 0.207847 -0.97528 
1.29737 -2.48587 8.99976 239 41 41 -0.549448 0.817398 -0.173114 
1.07332 -2.30515 9.04376 239 41 41 0.110987 -0.267674 -0.957096 
1.02625 -2.26882 9.05024 239 41 41 -0.27211 -0.221874 -0.936337 
0.90227 -2.17605 9.06226 239 41 41 0.128532 -0.0257064 -0.991372 
0.33006 -1.7436 9.13386 239 41 41 0.15313 0.0215516 -0.987971 
0.262185 -1.69191 9.14403 239 41 41 -0.0100056 0.136743 -0.990556 
-0.104403 -1.4204 9.18783 239 41 41 -0.44246 -0.0935168 -0.891899 
-0.203015 -1.34821 9.19897 239 41 41 -0.256058 -0.180189 -0.949719 
-0.519203 -1.11469 9.24149 239 41 41 0.07708 0.253985 -0.964132 
-0.971958 -0.794421 9.28249 239 41 41 -0.0261625 -0.149013 -0.988489 
-1.26803 -0.551375 9.37873 239 41 41 -0.881346 -0.46112 0.102941 
-1.39159 0.314318 10.9054 239 41 41 -0.541348 -0.83817 0.0664317 
-1.40549 0.341515 10.9409 239 41 41 -0.829787 -0.535873 0.155863 
1.81428 -2.92969 8.86536 239 41 41 -0.0850484 -0.12 -0.989124 
1.62279 -2.7802 8.88957 239 41 41 -0.263026 -0.202433 -0.943312 
1.41887 -2.62085 8.91707 239 41 41 -0.115894 0.185679 -0.975752 
1.28742 -2.51739 8.93699 239 41 41 -0.370589 0.443753 -0.815933 
0.370367 -1.778 9.12907 239 41 41 -0.0150124 0.0110091 -0.999827 
0.3034 -1.72857 9.13598 239 41 41 -0.213466 0.0936252 -0.972454 
0.0895994 -1.57008 9.16061 239 41 41 -0.0697362 0.0697362 -0.995125 
0.0156968 -1.51327 9.17344 239 41 41 -0.141739 -0.0691125 -0.987488 
-0.3109 -1.27356 9.21136 239 41 41 -0.111053 -0.0459918 -0.99275 
-0.337147 -1.25506 9.21313 239 41 41 -0.0426739 0.345271 -0.937532 
-0.554227 -1.09663 9.2394 239 41 41 -0.0954583 0.160708 -0.982375 
-0.911254 -0.842527 9.2744 239 41 41 0.0733019 0.0868345 -0.993522 
-1.00447 -0.779909 9.27716 239 41 41 -0.104087 0.25058 -0.962484 
-1.23273 -0.599748 9.33729 239 41 41 -0.14061 -0.10696 -0.984271 
-1.27283 -0.529655 9.42269 239 41 41 -0.904272 -0.40643 0.130789 
-1.30146 -0.472572 9.4974 239 41 41 -0.838138 -0.535196 0.105308 
-1.30702 0.179799 10.759 239 41 41 0.628338 -0.732798 -0.261148 
-1.36148 0.257778 10.8425 239 41 41 -0.888274 -0.444843 0.114388 
-1.41744 0.372585 10.9959 239 41 41 -0.720807 -0.675283 0.156301 
1.72725 -2.86737 8.87436 239 41 41 -0.57782 0.245848 -0.778256 
1.65073 -2.80551 8.88796 239 41 41 0.165637 -0.181045 -0.969426 
1.49227 -2.68356 8.90552 239 41 41 -0.0951423 0.0882645 -0.991543 
1.32137 -2.54839 8.93219 239 41 41 -0.149262 0.012345 -0.988721 
1.16794 -2.39037 9.02508 239 41 41 0.295955 0.0495376 -0.953916 
1.11254 -2.34473 9.0378 239 41 41 0.0924742 0.154924 -0.983589 
0.997893 -2.25715 9.05174 239 41 41 -0.324503 0.31254 -0.892758 
0.837599 -2.1351 9.07137 239 41 41 -0.124331 -0.219181 -0.96773 
0.751787 -2.07089 9.08019 239 41 41 -0.154184 0.269488 -0.950581 
0.619766 -1.97007 9.09816 239 41 41 0.181194 -0.121213 -0.975949 
0.434756 -1.83323 9.11622 239 41 41 0.181682 0.0510609 -0.982031 
0.193247 -1.6504 9.14991 239 41 41 -0.0534282 -0.0199046 -0.998373 
0.127912 -1.60145 9.15849 239 41 41 -0.230098 -0.105515 -0.96743 
-0.364641 -1.23886 9.21692 239 41 41 0.0483099 0.0547512 -0.997331 
-0.426201 -1.19406 9.22397 239 41 41 -0.26295 0.221212 -0.939107 
-0.584609 -1.07922 9.24199 239 41 41 -0.206362 0.0827919 -0.974967 
-0.828455 -0.907607 9.26182 239 41 41 0.166931 0.307649 -0.936742 
-1.07756 -0.729123 9.29064 239 41 41 0.208625 0.214009 -0.954293 
-1.28482 -0.506394 9.46066 239 41 41 -0.889428 -0.445417 0.102572 
-1.31467 -0.445093 9.54214 239 41 41 -0.848345 -0.528319 0.0344856 
-1.33866 0.211561 10.7904 239 41 41 -0.81029 -0.570314 0.134802 
-1.37522 0.284541 10.8868 239 41 41 -0.922576 -0.370397 0.107976 
1.59584 -2.76712 8.89527 239 41 41 0.134117 -0.0961367 -0.986291 
1.55582 -2.73317 8.90546 239 41 41 0.0532842 -0.114504 -0.991993 
1.27386 -2.4732 9.01772 239 41 41 0.0970741 0.00106675 -0.995277 
1.21538 -2.42967 9.02226 239 41 41 -0.19054 -0.147061 -0.970602 
0.681238 -2.02203 9.0885 239 41 41 0.0838025 0.0359154 -0.995835 
0.534384 -1.90961 9.10943 239 41 41 0.220324 -0.152532 -0.963427 
0.464205 -1.85731 9.11707 239 41 41 0.10139 -0.103721 -0.989425 
-0.045764 -1.47913 9.17537 239 41 41 -0.505784 -0.00402481 -0.862651 
-0.133143 -1.41074 9.19337 239 41 41 -0.190761 -0.0127174 -0.981554 
-0.231245 -1.33851 9.20528 239 41 41 0.00661069 0.461426 -0.887154 
-0.62246 -1.05627 9.24573 239 41 41 0.255767 0.147099 -0.955482 
-0.647542 -1.03767 9.24951 239 41 41 -0.0594416 0.148021 -0.987196 
-0.734024 -0.975563 9.25887 239 41 41 0.0738525 0.187658 -0.979454 
-0.795099 -0.93205 9.26498 239 41 41 -0.0551476 0.229169 -0.971823 
