ply
format ascii 1.0
comment Created by CloudCompare v2.11.1 (Anoia)
comment Created 2022/8/5 下午4:51
obj_info Generated by CloudCompare!
element vertex 733
property float x
property float y
property float z
property uchar red
property uchar green
property uchar blue
property float nx
property float ny
property float nz
end_header
-117.664 140.683 550.363 194 194 194 -0.168302 0.404212 -0.899048 
-96.0201 138.441 543.301 162 162 162 -0.170106 -0.853488 -0.492567 
-69.65 137.171 540.063 107 107 107 0.794327 -0.305998 -0.524795 
-64.6518 136.089 536.055 168 168 168 0.294734 -0.763123 -0.57513 
-19.3662 135.468 535.187 42 42 42 0.820552 -0.248793 -0.514584 
-14.9351 133.37 526.959 134 134 134 -0.237947 0.186863 -0.953133 
35.3118 129.921 512.819 100 100 100 0.936934 -0.0919609 -0.33719 
56.0676 131.402 517.815 105 105 105 0.510298 -0.377458 -0.772736 
62.3348 128.471 505.86 144 144 144 -0.163115 -0.815573 -0.555188 
102.404 139.37 546.292 42 42 42 0.00137942 -0.74075 -0.671779 
113.027 139.161 544.506 21 21 21 -0.171197 -0.00340126 -0.985231 
120.785 138.718 541.988 40 40 40 -0.0856685 -0.872133 -0.48171 
197.859 136.39 522.763 27 27 27 0.0205817 -0.83836 -0.544728 
-158.848 143.589 556.522 62 62 62 -0.310846 -0.865162 -0.393534 
-143.719 142.281 553.055 88 88 88 -0.313868 -0.81858 -0.481054 
-140.083 142.809 555.567 82 82 82 0.705621 -0.196092 -0.680916 
-125.005 142.116 554.373 163 163 163 0.613995 -0.122799 -0.779699 
-112.249 140.207 547.975 153 153 153 -0.443159 0.0759307 -0.893221 
-91.589 138.103 541.33 168 168 168 -0.0442652 -0.902743 -0.427897 
-86.7583 139.489 547.185 125 125 125 0.883057 -0.13024 -0.450831 
-74.51 137.229 539.04 165 165 165 -0.361217 -0.762928 -0.536156 
-2.08755 133.959 528.432 65 65 65 0.891633 -0.0446493 -0.450552 
9.01512 131.419 518.369 199 199 199 -0.339831 -0.820337 -0.459958 
30.3761 130.074 512.663 178 178 178 0.119035 -0.809731 -0.574601 
150.29 137.99 534.815 32 32 32 -0.148048 -0.851643 -0.502777 
158.458 137.671 532.514 29 29 29 0.0227399 -0.886856 -0.461486 
183.63 137.04 526.537 29 29 29 -0.0204299 -0.851247 -0.524368 
165.874 106.456 405.478 7 7 7 -0.698034 -0.698034 -0.159681 
-131.02 141.739 551.262 94 94 94 -0.47265 0.0945299 -0.876166 
-80.1245 137.797 539.966 173 173 173 0.00132182 -0.881656 -0.471891 
-61.5886 136.516 535.997 173 173 173 -0.0609256 -0.814703 -0.576668 
-45.6851 135.176 531.428 172 172 172 0.0976279 -0.797052 -0.595967 
-27.4652 135.637 533.806 159 159 159 -0.110795 0.740112 -0.663294 
-10.079 133.351 525.072 79 79 79 -0.51267 0.211458 -0.832139 
3.60504 131.958 519.61 255 255 255 -0.336653 -0.263148 -0.904112 
18.8119 130.689 514.445 118 118 118 0.675366 -0.474264 -0.56476 
94.3765 127.101 496.329 45 45 45 0.0951184 -0.636562 -0.765338 
142.211 138.44 536.603 35 35 35 -0.298641 -0.830252 -0.470633 
179.755 137.193 526.735 24 24 24 -0.235491 -0.849286 -0.472501 
190.838 136.874 523.831 26 26 26 -0.15233 -0.874811 -0.459892 
-168.861 144.423 556.577 76 76 76 -0.165611 -0.828057 -0.535626 
-89.2478 138.995 543.101 105 105 105 0.733032 -0.391934 -0.555924 
-71.9329 137.281 537.487 147 147 147 0.528033 -0.64275 -0.555026 
-49.1226 137.24 538.479 131 131 131 0.854702 -0.126246 -0.503534 
-32.6136 135.035 530.367 40 40 40 0.70954 -0.64227 -0.289902 
-26.6459 134.088 526.79 151 151 151 0.177538 0.399821 -0.899235 
45.7827 129.849 509.422 173 173 173 -0.230667 -0.838651 -0.493414 
58.1094 129.08 505.803 154 154 154 -0.0205987 -0.830816 -0.556166 
116.927 139.105 540.976 10 10 10 -0.0482094 -0.984178 -0.170497 
134.876 138.704 537.514 34 34 34 -0.176713 -0.880643 -0.439591 
161.313 137.956 531.339 30 30 30 -0.0645388 -0.891185 -0.449025 
166.064 137.782 530.018 29 29 29 -0.110164 -0.902229 -0.41695 
-155.924 143.906 555.106 83 83 83 -0.107069 -0.863691 -0.492518 
-152.63 143.583 554.208 81 81 81 -0.181618 -0.91095 -0.370386 
-58.6558 136.696 534.958 189 189 189 -0.190198 -0.84915 -0.492717 
-42.6601 135.604 531.344 85 85 85 -0.441316 -0.735527 -0.514043 
-18.2056 134.714 528.477 97 97 97 0.236618 0.287626 -0.928053 
21.9585 131.188 514.53 150 150 150 -0.0608958 -0.822802 -0.565057 
27.2889 130.942 513.444 187 187 187 -0.258304 -0.85439 -0.450885 
74.6311 128.447 501.402 91 91 91 -0.769543 -0.6328 -0.0858281 
77.6777 128.402 501.011 80 80 80 -0.0950078 -0.758601 -0.644592 
176.265 137.695 527.302 27 27 27 -0.134448 -0.898677 -0.417496 
186.273 137.439 524.84 28 28 28 -0.0654064 -0.866983 -0.494027 
-163.958 144.517 555.546 70 70 70 -0.0206441 -0.824388 -0.565649 
-127.929 142.005 549.658 126 126 126 -0.340521 0.676155 -0.653345 
-128.602 143.842 556.868 136 136 136 -0.251597 0.825795 -0.504738 
-109.425 140.946 547.229 221 221 221 -0.195535 0.144415 -0.970006 
-54.732 136.466 533.296 180 180 180 -0.443887 -0.782087 -0.437383 
-23.6659 134.572 526.897 96 96 96 -0.29483 -0.518711 -0.802505 
-23.2324 136.068 532.765 78 78 78 -0.215049 0.855684 -0.470701 
-4.12779 133.881 524.408 62 62 62 0.604149 0.0436565 -0.795674 
-3.84194 131.91 516.688 58 58 58 0.996099 -0.0732586 -0.0492035 
-1.6046 133.018 521.031 72 72 72 0.596254 0.765271 -0.242571 
16.639 131.903 516.524 109 109 109 0.923427 -0.0220791 -0.383138 
40.4721 130.375 509.899 164 164 164 0.0207768 -0.801983 -0.596986 
97.3811 127.693 495.744 22 22 22 -0.0679211 -0.686437 -0.72401 
123.076 139.532 540.117 38 38 38 -0.107069 -0.863691 -0.492518 
144.705 138.811 534.872 33 33 33 -0.04269 -0.863441 -0.502641 
152.634 138.483 532.607 29 29 29 -0.15399 -0.890837 -0.427429 
168.879 138.049 528.766 27 27 27 -0.146033 -0.839322 -0.523654 
159.872 108.325 410.93 9 9 9 -0.776078 -0.517923 -0.359803 
168.226 106.593 402.625 7 7 7 -0.663916 -0.698943 -0.265885 
-149.518 143.677 552.94 81 81 81 -0.218916 -0.877154 -0.427408 
-21.0386 134.155 524.386 56 56 56 -0.0425605 0.869057 -0.492878 
49.2603 127.998 499.323 59 59 59 0.958799 -0.216161 -0.184333 
64.9527 129.287 503.546 161 161 161 -0.330166 -0.799098 -0.502427 
74.1038 131.456 511.483 49 49 49 0.509248 -0.559669 -0.653787 
100.256 127.687 494.576 11 11 11 -0.447255 -0.34927 -0.823392 
130.816 139.392 537.78 31 31 31 -0.102454 -0.838389 -0.535357 
195.049 137.472 521.732 28 28 28 -0.218916 -0.877154 -0.427408 
-138.32 144.746 557.429 104 104 104 0.983039 0.00113909 -0.183394 
-135.839 142.657 549.439 87 87 87 0.858854 -0.354374 -0.369849 
-125.029 142.222 548.838 133 133 133 -0.292321 -0.755561 -0.586239 
-121.502 142.907 551.889 176 176 176 0.402285 0.383354 -0.831389 
-115.076 142.171 549.595 178 178 178 -0.373533 0.153642 -0.914804 
-105.806 142.055 549.962 125 125 125 0.838741 -0.253931 -0.481699 
-84.429 138.676 538.345 156 156 156 -0.170106 -0.853488 -0.492567 
-68.2536 139.346 541.998 127 127 127 0.886592 -0.108534 -0.449639 
-39.7919 136.002 530.2 186 186 186 -0.185318 -0.830163 -0.52582 
-12.3985 134.852 526.31 158 158 158 -0.301661 0.349686 -0.886973 
-7.32505 134.325 524.291 116 116 116 -0.430713 0.318759 -0.844322 
6.3112 132.881 518.65 242 242 242 -0.302356 0.172578 -0.937442 
36.8336 130.539 508.881 55 55 55 0.621439 -0.510287 -0.594493 
103.119 127.679 493.398 20 20 20 -0.580538 -0.706239 -0.405219 
137.657 139.343 535.865 30 30 30 -0.0446493 -0.891633 -0.450552 
171.679 138.308 527.491 27 27 27 -0.0873247 -0.894039 -0.439396 
162.479 107.971 407.58 10 10 10 -0.653981 -0.624027 -0.427667 
-160.854 144.903 554.444 67 67 67 -0.272414 -0.820356 -0.502799 
-146.628 143.731 551.496 83 83 83 -0.241383 -0.877075 -0.415299 
-103.298 140.853 544.474 155 155 155 0.49444 0.314356 -0.810376 
-98.3955 140.338 542.858 208 208 208 -0.360635 0.158567 -0.919129 
-94.265 139.864 541.323 232 232 232 -0.411501 0.0719788 -0.908562 
-78.1707 138.684 537.849 168 168 168 -0.108929 -0.881334 -0.459765 
-35.4775 135.652 528.043 181 181 181 -0.335551 -0.809456 -0.481857 
14.4829 131.393 511.859 89 89 89 0.881334 -0.108929 -0.459765 
55.4943 129.755 504.127 130 130 130 0.676155 -0.340521 -0.653345 
80.3488 128.987 499.568 66 66 66 -0.170106 -0.853488 -0.492567 
85.5718 128.609 497.688 88 88 88 0.0999195 -0.818182 -0.566211 
147.379 139.139 532.959 32 32 32 -0.17189 -0.871205 -0.459843 
155.454 138.967 531.282 30 30 30 -0.126624 -0.848529 -0.513775 
-166.757 145.365 554.537 85 85 85 -0.169981 -0.858773 -0.483337 
-141.232 144.193 552.936 74 74 74 0.809456 -0.335551 -0.481857 
-50.543 138.039 535.871 122 122 122 0.866254 -0.128281 -0.482854 
-18.0687 134.846 524.376 150 150 150 -0.358274 -0.757077 -0.546328 
1.3462 133.933 520.948 237 237 237 -0.233743 0.316916 -0.9192 
11.2455 132.896 516.853 241 241 241 -0.0187691 0.120343 -0.992555 
24.3468 131.884 512.692 181 181 181 -0.126624 -0.848529 -0.513775 
30.2968 129.609 503.682 75 75 75 0.15399 -0.890837 -0.427429 
37.0053 133.199 517.451 57 57 57 -0.801181 -0.566168 0.19381 
93.4819 131.352 506.908 21 21 21 0.169981 -0.858773 -0.483337 
163.106 138.889 529.026 28 28 28 -0.198678 -0.881543 -0.428262 
181.559 138.422 524.635 29 29 29 -0.134046 -0.904456 -0.404959 
188.222 138.147 522.57 27 27 27 -0.108929 -0.881334 -0.459765 
197.706 137.904 520.175 26 26 26 -0.108534 -0.886592 -0.449639 
-174.468 148.188 563.71 46 46 46 0.590428 -0.486136 -0.644256 
-143.985 143.772 549.981 91 91 91 0.0812494 -0.833876 -0.545939 
-118.45 143.47 551.446 213 213 213 0.0556492 0.763393 -0.643533 
-75.3813 138.787 536.535 167 167 167 -0.247539 -0.890846 -0.380944 
-65.775 137.842 533.423 160 160 160 0.511041 -0.688649 -0.514392 
43.033 131.155 508.377 105 105 105 -0.167756 -0.84769 -0.503269 
47.3509 130.823 506.905 176 176 176 -0.419613 -0.789003 -0.448776 
55.8077 132.508 513.064 37 37 37 -0.326388 0.461989 -0.824643 
60.382 130.285 504.161 165 165 165 -0.121684 -0.822468 -0.555643 
119.336 140.523 539.571 30 30 30 -0.0709288 -0.728106 -0.681785 
140.501 139.818 534.532 36 36 36 -0.0892155 -0.909998 -0.404901 
158.247 139.198 529.925 29 29 29 -0.300155 -0.841367 -0.449455 
-157.962 145.242 553.144 77 77 77 -0.174097 -0.876335 -0.44914 
-133.023 143.729 550.026 85 85 85 -0.182824 -0.919789 -0.347224 
-116.15 142.087 545.269 161 161 161 0.241244 0.325029 -0.914416 
-87.8249 141.29 544.506 118 118 118 0.889069 -0.132718 -0.438113 
-81.4714 139.4 537.584 176 176 176 -0.0837701 -0.847639 -0.523918 
-62.7671 138.127 533.757 175 175 175 -0.0428729 -0.850543 -0.524156 
-46.881 136.696 528.934 161 161 161 -0.836099 -0.473117 -0.277666 
-31.3296 137.339 531.943 86 86 86 0.876335 -0.174097 -0.44914 
-29.6112 137.978 534.465 146 146 146 -0.00968253 -0.0979011 -0.995149 
28.4934 131.867 510.737 190 190 190 -0.389093 -0.821066 -0.41768 
32.4426 130.728 506.206 87 87 87 0.902229 -0.110164 -0.41695 
177.686 138.798 524.764 26 26 26 -0.235491 -0.849286 -0.472501 
191.217 138.411 521.262 23 23 23 -0.0665857 -0.906381 -0.41718 
-169.898 146.053 553.85 92 92 92 -0.410302 -0.723384 -0.555309 
-154.978 145.219 552.42 76 76 76 -0.0892155 -0.909998 -0.404901 
-112.214 143.121 548.703 189 189 189 -0.425145 0.269716 -0.864005 
-70.1694 139.63 538.247 111 111 111 0.8413 -0.16826 -0.513714 
-57.4527 137.922 532.297 181 181 181 -0.281459 -0.853605 -0.438338 
-52.1615 138.072 533.126 111 111 111 0.799098 -0.330166 -0.502427 
-2.99706 136.017 526.297 58 58 58 0.892521 -0.111038 -0.437124 
66.9049 130.121 501.38 103 103 103 0.632822 -0.518071 -0.575446 
92.3812 128.93 494.876 77 77 77 -0.773572 -0.575059 -0.26626 
165.774 139.265 527.295 28 28 28 0.00133543 -0.86402 -0.503455 
174.037 139.113 525.569 29 29 29 -0.242061 -0.870517 -0.428493 
-152.159 145.109 551.337 79 79 79 -0.157797 -0.905558 -0.393783 
-130.225 143.805 548.66 131 131 131 -0.128021 -0.873134 -0.47037 
-122.404 143.714 549.089 93 93 93 0.667386 0.082878 -0.740086 
-90.376 140.91 540.929 143 143 143 0.497771 -0.220724 -0.838752 
-43.874 137.139 528.924 176 176 176 0.0013315 -0.869469 -0.493986 
-28.3994 135.99 524.953 175 175 175 0.0606135 -0.835902 -0.545521 
73.8233 129.774 498.706 92 92 92 0.534714 -0.619054 -0.575198 
82.6898 129.632 497.516 91 91 91 -0.28806 -0.807512 -0.51473 
142.982 140.177 532.788 34 34 34 -0.128021 -0.873134 -0.47037 
149.852 139.982 531.201 34 34 34 -0.112104 -0.912058 -0.394441 
183.946 139.037 522.909 23 23 23 -0.154598 -0.885687 -0.437787 
-164.017 146.131 552.913 79 79 79 -0.134448 -0.898677 -0.417496 
-149.105 144.995 550.264 78 78 78 -0.321589 -0.832994 -0.450224 
-139.497 145.9 554.882 92 92 92 0.830163 -0.185318 -0.52582 
-113.173 142.683 544.978 132 132 132 -0.278165 -0.58971 -0.758199 
-107.288 143.147 547.305 190 190 190 0.541348 -0.0664317 -0.83817 
-100.613 142.209 544.226 145 145 145 -0.556422 0.0968318 -0.825238 
-72.6147 139.373 535.228 120 120 120 0.5481 -0.497816 -0.672135 
-38.2366 137.021 527.742 178 178 178 -0.260172 -0.859633 -0.439706 
-25.1833 136.156 524.757 93 93 93 -0.30429 -0.851084 -0.427859 
-15.1091 136.091 524.675 38 38 38 0.744002 -0.642757 -0.182549 
-9.64034 136.371 525.808 160 160 160 -0.179683 0.548109 -0.816879 
4.29136 134.886 520.101 124 124 124 -0.376911 0.376911 -0.846095 
20.117 133.111 513.07 255 255 255 -0.371251 0.132093 -0.919089 
95.3341 129.242 494.093 72 72 72 0.0181417 -0.741017 -0.671241 
169.082 139.558 526.102 25 25 25 -0.223311 -0.885851 -0.406693 
169.454 107.623 399.849 6 6 6 -0.653981 -0.624027 -0.427667 
-127.456 143.895 547.352 133 133 133 -0.344751 -0.829607 -0.439203 
-54.9415 138.152 530.531 171 171 171 -0.0445402 -0.897552 -0.438653 
8.79029 134.584 518.007 105 105 105 -0.631004 0.279559 -0.723658 
39.202 132.066 507.627 168 168 168 0.0403537 -0.83073 -0.555211 
76.9037 130.248 498.583 86 86 86 -0.0791064 -0.806885 -0.585387 
136.499 140.534 533.028 6 6 6 0.57735 -0.57735 -0.57735 
152.69 140.247 529.988 33 33 33 -0.04269 -0.863441 -0.502641 
160.347 139.947 527.842 28 28 28 -0.210166 -0.845199 -0.491395 
-146.445 145.019 548.707 82 82 82 -0.247058 -0.89503 -0.371327 
-136.992 144.268 546.834 112 112 112 0.825534 -0.208284 -0.524511 
-95.9369 142.131 542.393 171 171 171 -0.252726 0.241555 -0.9369 
-49.0934 140.214 537.806 143 143 143 0.856969 -0.147955 -0.493673 
-33.2125 137.652 528.496 109 109 109 0.864265 -0.172264 -0.472622 
-8.85045 135.266 519.75 146 146 146 0.27458 0.411111 -0.869249 
15.4408 133.743 513.802 105 105 105 0.925871 -0.0679416 -0.371681 
62.5917 131.156 502.138 165 165 165 -0.276992 -0.77716 -0.565064 
98.2586 129.523 493.188 82 82 82 -0.251597 -0.825795 -0.504738 
193.488 139.195 519.281 28 28 28 -0.154598 -0.885687 -0.437787 
199.283 139.01 517.669 23 23 23 0.085382 -0.877615 -0.471701 
163.607 109.029 404.88 9 9 9 -0.185318 -0.830163 -0.52582 
165.854 108.588 402.778 9 9 9 -0.688082 -0.688082 -0.230406 
-161.192 146.53 551.866 76 76 76 -0.111736 -0.917337 -0.382109 
-124.55 144.087 546.459 130 130 130 0.696298 -0.465868 -0.546018 
-110.304 143.102 543.988 148 148 148 -0.213222 -0.645892 -0.733048 
-109.385 144.414 549.15 146 146 146 -0.130388 0.878325 -0.459939 
-77.8269 140.185 535.238 200 200 200 -0.28723 -0.691598 -0.662715 
-60.4528 139.033 531.812 181 181 181 -0.147955 -0.856969 -0.493673 
-0.697826 136.078 521.997 109 109 109 0.372516 0.353967 -0.857869 
57.5868 131.484 502.809 156 156 156 0.0765293 -0.769625 -0.633894 
70.7332 131.4 501.708 56 56 56 0.814464 0.226326 -0.534252 
91.9091 132.47 504.267 23 23 23 0.551551 -0.551551 -0.625766 
101.118 129.511 492.019 85 85 85 -0.342969 -0.771279 -0.536192 
145.496 140.814 531.186 35 35 35 -0.205409 -0.820113 -0.534062 
155.455 140.451 528.55 29 29 29 -0.135169 -0.918313 -0.372063 
179.606 139.691 522.326 26 26 26 0.0207737 -0.810175 -0.585819 
160.158 109.978 408.425 9 9 9 -0.83748 -0.500056 -0.220389 
-120.39 145.705 552.167 196 196 196 0.00134749 -0.844879 -0.534955 
-107.565 142.88 542.42 143 143 143 -0.502403 -0.238142 -0.831192 
-104.248 143.565 545.354 134 134 134 0.302316 0.302316 -0.903997 
-41.2351 137.961 527.603 187 187 187 -0.230792 -0.832992 -0.502852 
-36.0194 137.389 525.584 174 174 174 0.0839959 -0.841383 -0.533872 
-22.3915 136.79 523.624 186 186 186 -0.0207737 -0.810175 -0.585819 
-17.9857 136.278 521.735 181 181 181 -0.323209 -0.83847 -0.438753 
-13.3417 137.649 527.047 87 87 87 0.748281 -0.376586 -0.546131 
-4.81232 136.85 524.046 93 93 93 0.0556571 0.0643877 -0.996372 
13.2974 135.172 517.537 112 112 112 0.523539 -0.0259719 -0.851606 
44.3949 132.359 505.917 178 178 178 -0.212902 -0.850097 -0.481671 
47.9827 130.105 497.114 65 65 65 -0.631276 -0.732534 -0.254725 
54.1749 131.428 501.896 38 38 38 0.643958 -0.502724 -0.576704 
73.075 133.084 507.159 42 42 42 0.364132 -0.443636 -0.818899 
112.023 132.118 500.185 16 16 16 -0.0688642 -0.947208 -0.313137 
185.829 139.687 520.47 26 26 26 -0.136231 -0.908676 -0.394649 
-175.34 149.905 561.242 49 49 49 0.42615 -0.575385 -0.698089 
-157.264 146.555 550.481 80 80 80 -0.232803 -0.844481 -0.482343 
-142.228 146.155 550.678 74 74 74 0.723552 -0.364226 -0.586355 
-133.851 144.992 547.082 140 140 140 -0.130388 -0.878325 -0.459939 
-68.8022 141.857 540.354 137 137 137 0.820337 -0.339831 -0.459958 
-5.90572 135.957 519.728 149 149 149 -0.119697 -0.604398 -0.787639 
-3.17892 135.613 518.423 58 58 58 -0.135792 0.610318 -0.780431 
26.06 133.732 510.903 232 232 232 -0.354896 0.107421 -0.928714 
35.8221 132.743 506.836 71 71 71 0.149995 0.0546493 -0.987175 
79.572 130.838 497.195 91 91 91 -0.185353 -0.824294 -0.534962 
84.7647 130.44 495.272 83 83 83 0.420726 -0.600325 -0.680147 
139.407 141.318 531.972 36 36 36 -0.174097 -0.876335 -0.44914 
162.814 140.584 526.235 30 30 30 -0.177585 -0.896588 -0.405702 
171.397 140.322 524.06 27 27 27 -0.287081 -0.873393 -0.393407 
175.616 140.143 522.777 27 27 27 -0.348484 -0.845425 -0.404741 
188.775 139.857 519.762 28 28 28 -0.237856 -0.855979 -0.459047 
196.137 139.623 517.74 23 23 23 -0.13024 -0.883057 -0.450831 
-167.595 147.73 552.784 105 105 105 -0.464102 0.0794409 -0.882212 
-154.27 146.506 549.676 79 79 79 -0.219783 -0.871658 -0.438072 
-118.168 143.784 543.04 148 148 148 0.517218 -0.735342 -0.4379 
-93.1177 142.775 541.313 218 218 218 -0.245693 0.212751 -0.945712 
-85.5536 141.654 537.565 123 123 123 0.399456 0.252839 -0.881197 
-66.6713 139.611 530.938 176 176 176 0.0860432 -0.692721 -0.716055 
-31.2403 137.003 522.438 136 136 136 0.772477 -0.11373 -0.624776 
-14.1909 135.255 516.089 97 97 97 0.800852 0.0583214 -0.596016 
35.9792 135.217 515.412 59 59 59 0.91642 0.0686306 -0.394289 
47.1291 132.412 504.262 174 174 174 -0.207697 -0.832305 -0.513937 
-151.225 146.396 548.64 83 83 83 -0.287081 -0.873393 -0.393407 
-88.7072 143.177 542.243 113 113 113 0.876671 -0.196623 -0.439075 
-75.0709 140.789 534.025 242 242 242 -0.35902 -0.027023 -0.932938 
-63.6497 139.838 531.056 178 178 178 -0.105025 -0.844519 -0.525127 
-47.8491 138.468 526.568 160 160 160 -0.176713 -0.880643 -0.439591 
2.25802 136.855 521.373 201 201 201 -0.363532 0.181053 -0.913819 
13.7818 133.976 510.312 86 86 86 0.844574 -0.0402178 -0.533926 
18.1604 135.096 514.513 231 231 231 -0.332525 0.302702 -0.893196 
22.7847 134.577 512.445 153 153 153 -0.286363 0.286363 -0.914326 
64.5023 131.67 499.659 157 157 157 -0.347126 -0.834045 -0.428803 
89.3724 131.578 497.548 23 23 23 0.305998 0.794327 -0.524795 
103.376 129.95 490.06 60 60 60 0.413221 -0.688701 -0.595768 
166.543 140.837 524.851 29 29 29 -0.306674 -0.855298 -0.417632 
182.593 140.229 520.249 23 23 23 -0.174097 -0.876335 -0.44914 
-131.083 145.326 545.784 142 142 142 -0.198678 -0.881543 -0.428262 
-98.1293 143.984 543.673 207 207 207 -0.397654 0.482055 -0.780701 
-58.1314 139.645 529.689 174 174 174 -0.260172 -0.859633 -0.439706 
-50.8998 140.775 534.33 142 142 142 0.884998 -0.0646888 -0.46108 
-0.240325 135.985 517.177 167 167 167 -0.453982 -0.187803 -0.870994 
6.78106 136.617 519.553 254 254 254 -0.321999 0.161691 -0.93283 
30.257 134.234 510.076 141 141 141 0.437643 -0.0417445 -0.898179 
31.1808 132.484 503.39 70 70 70 0.857075 0.0203742 -0.514788 
41.5263 133.254 505.968 180 180 180 -0.126246 -0.854702 -0.503534 
91.2055 130.355 491.85 73 73 73 0.662331 -0.467824 -0.585199 
142.136 141.692 530.294 35 35 35 -0.0646888 -0.884998 -0.46108 
147.63 141.554 529.106 32 32 32 -0.0894802 -0.904438 -0.417115 
157.566 141.202 526.509 29 29 29 -0.196866 -0.871833 -0.448498 
-143.821 146.52 548.041 64 64 64 0.682018 -0.409875 -0.605685 
-127.61 145.178 544.621 135 135 135 -0.348982 -0.840374 -0.414709 
-115.228 144.413 542.895 130 130 130 -0.0224952 -0.903778 -0.427409 
-82.6302 142.196 537.055 228 228 228 -0.37096 0.187628 -0.909497 
-70.8885 141.776 536.205 113 113 113 0.880643 -0.176713 -0.439591 
-44.8552 138.914 526.579 179 179 179 0.0208108 -0.794973 -0.606288 
-30.3334 139.811 530.447 159 159 159 -0.742451 -0.640576 -0.196032 
-26.9333 137.808 522.919 177 177 177 0.0607585 -0.829425 -0.555305 
53.6147 134.42 509.007 92 92 92 0.856969 0.147955 -0.493673 
59.8131 132.378 500.907 94 94 94 -0.256608 -0.843579 -0.471728 
150.509 141.625 528.099 32 32 32 -0.197529 -0.785522 -0.586462 
191.082 140.43 517.918 22 22 22 -0.15233 -0.874811 -0.459892 
-170.923 149.044 553.525 100 100 100 0.644818 0.365889 -0.67107 
-148.524 146.619 546.922 78 78 78 -0.288321 -0.868013 -0.404259 
-104.898 144.251 542.252 107 107 107 0.617058 -0.188333 -0.764049 
-101.627 145.025 545.486 245 245 245 -0.174708 0.367882 -0.913313 
-98.5816 143.04 538.153 163 163 163 0.173289 0.48432 -0.857558 
-52.6815 140.393 530.97 107 107 107 0.832992 -0.230792 -0.502852 
-39.2284 138.762 525.3 182 182 182 -0.25857 -0.849149 -0.46053 
72.6367 131.61 496.337 82 82 82 0.392232 -0.65703 -0.64379 
81.8965 131.459 495.103 94 94 94 -0.256608 -0.843579 -0.471728 
84.1772 129.618 487.905 27 27 27 0.799211 -0.138411 -0.584897 
110.186 132.822 497.84 12 12 12 0.543844 -0.490296 -0.68106 
200.034 140.256 514.953 23 23 23 -0.110164 -0.902229 -0.41695 
-138.112 145.842 544.155 102 102 102 0.783835 -0.349265 -0.513436 
-122.886 146.327 547.594 136 136 136 0.885851 -0.223311 -0.406693 
-112.125 144.589 541.967 152 152 152 -0.110606 -0.89745 -0.427024 
-55.6341 139.883 527.991 168 168 168 0.416503 -0.695278 -0.585759 
-20.6984 137.761 521.083 188 188 188 -0.33816 -0.814443 -0.471519 
-15.5092 138.103 522.457 98 98 98 0.783835 -0.349265 -0.513436 
-10.8153 139.276 526.945 168 168 168 -0.575644 0.0434184 -0.816547 
10.8272 136.896 517.92 217 217 217 -0.605913 0.184674 -0.773799 
75.7124 131.88 496.301 85 85 85 0.0406348 -0.808492 -0.587103 
94.2915 131.087 491.824 73 73 73 0.0208108 -0.794973 -0.606288 
114.5 133.463 498.996 17 17 17 0.325615 -0.84286 -0.428441 
153.318 141.873 526.846 31 31 31 -0.132718 -0.889069 -0.438113 
-164.833 148.929 551.904 102 102 102 -0.323436 0.18342 -0.928303 
-145.68 146.679 545.566 83 83 83 0.558673 -0.616059 -0.555297 
-79.6334 142.593 535.999 241 241 241 -0.387147 0.117948 -0.914443 
73.33 134.108 504.069 52 52 52 -0.974797 -0.21996 0.037261 
98.8941 131.096 490.603 80 80 80 -0.25857 -0.849149 -0.46053 
160.279 141.846 524.925 32 32 32 -0.119285 -0.793758 -0.596423 
168.59 141.565 522.743 28 28 28 -0.124271 -0.828959 -0.545329 
177.567 141.286 520.421 27 27 27 -0.242061 -0.870517 -0.428493 
193.705 140.837 516.325 25 25 25 -0.0859456 -0.866501 -0.491722 
161.529 111.059 405.804 11 11 11 -0.754703 -0.478472 -0.448875 
166.995 109.841 400.207 6 6 6 -0.963706 0.265723 -0.0257152 
-159.925 148.487 549.849 103 103 103 -0.365556 0.110899 -0.924159 
-135.03 146.371 544.618 138 138 138 -0.0428729 -0.850543 -0.524156 
-109.149 144.599 540.401 141 141 141 -0.354374 -0.858854 -0.369849 
-95.4522 143.663 537.993 142 142 142 -0.246819 -0.437612 -0.864625 
-95.2666 145.18 543.767 122 122 122 -0.283 0.788922 -0.545447 
-61.3496 140.751 529.189 195 195 195 -0.226326 -0.814464 -0.534252 
-34.0142 139.696 526.309 110 110 110 0.874811 -0.15233 -0.459892 
-24.1429 138.417 521.725 181 181 181 -0.0812494 -0.833876 -0.545939 
-10.4052 137.357 517.923 178 178 178 0.220619 -0.80071 -0.556948 
2.68432 136.76 515.704 70 70 70 -0.264356 0.874639 -0.406352 
8.49835 136.223 513.643 175 175 175 0.219887 -0.66278 -0.715802 
56.2546 133.131 500.525 153 153 153 -0.0792482 -0.791041 -0.606609 
90.2455 133.534 499.768 28 28 28 0.700318 0.290063 -0.652241 
106.127 131.712 491.42 16 16 16 0.881905 -0.220847 -0.416497 
138.715 142.491 529.113 6 6 6 0.56446 -0.725734 -0.393312 
144.634 142.55 528.65 33 33 33 -0.111038 -0.892521 -0.437124 
163.787 141.88 523.672 30 30 30 -0.185353 -0.824294 -0.534962 
172.574 141.623 521.495 28 28 28 -0.198678 -0.881543 -0.428262 
186.473 141.214 517.936 27 27 27 -0.0204299 -0.851247 -0.524368 
-176.612 151.532 558.436 42 42 42 0.884359 -0.417819 -0.208171 
-124.832 146.222 544.158 113 113 113 0.765465 -0.340028 -0.5463 
-42.1884 139.611 524.827 184 184 184 -0.165166 -0.834759 -0.525259 
-37.0184 139.131 523.192 171 171 171 -0.0180889 -0.780605 -0.624762 
-7.00823 137.412 517.275 103 103 103 -0.372228 -0.840262 -0.394216 
20.8321 136.527 513.745 244 244 244 -0.276421 0.264963 -0.923789 
38.2429 134.688 506.338 201 201 201 -0.395666 0.235621 -0.887655 
196.341 141.028 514.821 25 25 25 -0.126246 -0.854702 -0.503534 
-153.364 148.061 547.091 115 115 115 -0.422373 -0.0724458 -0.903522 
-119.14 145.374 540.554 155 155 155 0.438468 -0.655201 -0.615189 
-92.3755 143.759 536.749 136 136 136 -0.560185 -0.316208 -0.76564 
-90.9847 144.921 541.248 176 176 176 -0.330259 0.55258 -0.765235 
-18.3549 138.14 519.017 167 167 167 0.449602 -0.673568 -0.586656 
-13.9732 139.606 524.588 121 121 121 0.869569 -0.150026 -0.47047 
11.6302 136.617 513.355 151 151 151 -0.188714 -0.750252 -0.633648 
14.7363 136.348 512.306 78 78 78 0.206762 0.685581 -0.698017 
25.2445 136.368 512.182 92 92 92 -0.616829 0.31083 -0.723123 
62.0061 133.224 498.858 155 155 155 -0.344751 -0.829607 -0.439203 
180.278 141.737 519.007 27 27 27 -0.0684089 -0.921509 -0.382285 
-173.802 152.182 559.329 111 111 111 0.420235 -0.297089 -0.857403 
-156.561 148.806 548.597 109 109 109 -0.404959 0.134046 -0.904456 
-130.24 146.577 543.075 130 130 130 -0.20254 -0.896129 -0.39488 
-90.1117 143.392 534.614 152 152 152 -0.312753 0.755418 -0.575786 
-76.6683 143.259 535.045 243 243 243 -0.367882 0.174708 -0.913313 
-72.721 142.871 533.832 219 219 219 0.204589 -0.109198 -0.972738 
-69.5276 144.004 538.287 127 127 127 0.85439 -0.258304 -0.450885 
-48.7954 139.956 524.09 152 152 152 0.292859 -0.819066 -0.493319 
-29.3551 138.992 521.118 183 183 183 0.128698 -0.860399 -0.493103 
4.52444 138.683 520.295 116 116 116 0.539826 -0.133853 -0.831067 
28.0833 136.266 510.861 193 193 193 -0.228192 0.29339 -0.928359 
44.4585 134.532 503.795 216 216 216 -0.429937 0.166474 -0.887378 
53.1446 133.675 500.179 36 36 36 0.115378 0.214273 -0.969936 
78.3566 132.655 494.8 87 87 87 -0.107069 -0.863691 -0.492518 
101.157 131.532 488.671 77 77 77 -0.302648 -0.845862 -0.439228 
183.454 141.731 517.609 25 25 25 -0.245565 -0.885524 -0.394393 
163.988 111.102 402.682 9 9 9 -0.571089 -0.813546 -0.109544 
-168.395 150.711 553.43 90 90 90 -0.456922 0.25826 -0.851189 
-141.484 149.064 550.368 84 84 84 0.851084 -0.30429 -0.427859 
-127.463 146.381 541.682 145 145 145 -0.239542 -0.866268 -0.438407 
-86.4734 144.604 538.534 85 85 85 0.635314 0.381189 -0.671618 
-4.07036 137.924 516.585 185 185 185 -0.174097 -0.876335 -0.44914 
17.7862 137.915 516.396 176 176 176 -0.208284 0.825534 -0.524511 
35.0194 135.714 507.724 55 55 55 0.16935 0.379969 -0.909365 
64.4232 133.24 497.08 165 165 165 -0.167756 -0.84769 -0.503269 
83.734 132.449 492.779 76 76 76 0.434006 -0.683435 -0.586989 
103.969 131.493 487.419 17 17 17 0.898308 -0.295476 -0.325172 
147.944 143.061 526.519 36 36 36 -0.177585 -0.896588 -0.405702 
155.362 142.789 524.565 31 31 31 -0.223311 -0.885851 -0.406693 
188.996 141.771 516.033 25 25 25 -0.132718 -0.889069 -0.438113 
-170.464 149.963 549.349 77 77 77 -0.243819 -0.881039 -0.405368 
-171.72 151.72 555.883 72 72 72 -0.00134404 0.85078 -0.525521 
-116.185 145.968 540.293 153 153 153 0.0442652 -0.902743 -0.427897 
-106.362 145.553 539.616 128 128 128 0.668903 -0.471082 -0.575022 
-103.507 146.551 543.624 163 163 163 0.783099 -0.280017 -0.555289 
-100.419 144.516 536.21 105 105 105 0.612138 -0.642325 -0.4612 
-67.6978 142.606 531.32 179 179 179 0.180072 0.284542 -0.9416 
17.3647 136.596 510.603 166 166 166 -0.451082 -0.474046 -0.756178 
31.9499 135.145 504.832 82 82 82 0.908284 -0.0441434 -0.416018 
47.6783 132.901 495.841 78 78 78 0.614253 0.0152523 -0.788962 
108.649 133.766 494.714 4 4 4 0.861414 -0.0628259 -0.504004 
112.639 134.361 496.568 86 86 86 0.274413 -0.762963 -0.585308 
141.295 143.426 527.781 35 35 35 -0.163122 -0.821596 -0.546234 
150.794 143.116 525.463 30 30 30 -0.0654064 -0.866983 -0.494027 
174.892 142.399 519.559 24 24 24 -0.276947 -0.837029 -0.471893 
168.389 110.299 397.452 7 7 7 -0.650185 -0.754913 -0.0858187 
-162.069 150.357 550.952 105 105 105 -0.381539 0.21489 -0.899028 
-87.1515 144.244 535.304 46 46 46 0.754169 0.379528 -0.5359 
-64.7942 142.591 530.525 233 233 233 -0.406157 0.217109 -0.887637 
-51.6731 142.902 532.332 124 124 124 0.872133 -0.0856685 -0.48171 
-45.8209 140.651 524.157 179 179 179 0.00136648 -0.802126 -0.597153 
-31.3604 141.541 527.954 151 151 151 -0.79301 -0.588363 -0.158 
-1.36272 138.018 515.204 193 193 193 -0.328393 -0.848219 -0.41555 
31.4379 136.976 510.839 103 103 103 0.697143 -0.018162 -0.716702 
48.2028 135.196 503.567 99 99 99 0.439122 -0.0225531 -0.898144 
96.1261 132.364 489.752 79 79 79 -0.107069 -0.863691 -0.492518 
165.85 142.846 521.585 26 26 26 -0.220847 -0.881905 -0.416497 
200.871 141.788 512.473 24 24 24 -0.0441434 -0.908284 -0.416018 
-167.398 149.896 547.575 55 55 55 -0.269716 0.425145 -0.864005 
-150.622 148.963 546.094 110 110 110 -0.418676 0.162579 -0.893464 
-139.023 147.444 541.671 118 118 118 0.526889 -0.553823 -0.644724 
-133.064 147.478 542.445 137 137 137 -0.0662267 -0.912306 -0.404118 
-113.142 146.202 539.608 155 155 155 -0.237601 -0.861115 -0.449475 
-83.5389 145.139 538.004 255 255 255 -0.273976 0.369792 -0.887801 
-58.8994 142.045 527.895 234 234 234 -0.423226 0.116704 -0.898476 
-53.6529 142.215 528.782 103 103 103 0.808647 -0.267464 -0.523978 
-39.9626 140.414 522.602 183 183 183 -0.278943 -0.849158 -0.448466 
-26.5774 139.649 520.128 172 172 172 -0.119035 -0.809731 -0.574601 
2.8703 136.465 508.544 118 118 118 0.872133 -0.0856685 -0.48171 
58.4893 134.264 498.725 188 188 188 -0.25033 -0.530202 -0.810074 
90.4131 132.421 489.621 75 75 75 0.0608958 -0.822802 -0.565057 
158.092 143.216 523.097 28 28 28 -0.192289 -0.860084 -0.472525 
161.208 143.087 522.207 32 32 32 -0.220847 -0.881905 -0.416497 
169.789 142.869 520.232 27 27 27 -0.104729 -0.850745 -0.515038 
-143.982 149.096 546.419 65 65 65 0.801342 -0.288105 -0.524257 
-109.365 145.84 537.67 140 140 140 -0.356385 -0.862421 -0.359471 
-97.2628 145.084 535.863 107 107 107 -0.220847 -0.881905 -0.416497 
-22.9038 139.626 519.245 182 182 182 -0.165166 -0.834759 -0.525259 
-11.7007 138.461 515.073 48 48 48 0.855684 -0.215049 -0.470701 
19.7459 136.781 508.677 70 70 70 -0.776078 0.517923 -0.359803 
40.889 136.21 505.951 149 149 149 -0.511587 0.305685 -0.803017 
71.6932 133.46 494.082 85 85 85 0.486155 -0.536274 -0.689973 
80.7175 133.337 492.983 90 90 90 -0.258304 -0.85439 -0.450885 
91.3711 134.683 497.186 56 56 56 -0.908368 -0.403565 0.109559 
191.488 142.311 514.086 25 25 25 -0.20254 -0.896129 -0.39488 
-165.446 151.72 552.82 71 71 71 -0.327214 0.575445 -0.749529 
-147.555 149.038 544.853 114 114 114 -0.441532 0.132888 -0.88735 
-123.472 148.529 545.514 139 139 139 0.871658 -0.219783 -0.438072 
-80.9722 143.984 532.046 173 173 173 0.224193 -0.119143 -0.967234 
-80.4678 145.604 538.127 159 159 159 -0.391298 0.777725 -0.491964 
-70.8363 144.723 535.447 120 120 120 0.855684 -0.215049 -0.470701 
74.75 133.719 494.006 84 84 84 0.0379674 -0.794503 -0.606072 
143.989 144.015 526.046 34 34 34 -0.132718 -0.889069 -0.438113 
177.509 143.004 517.854 25 25 25 -0.226996 -0.900661 -0.370516 
197.744 142.39 512.534 26 26 26 -0.111038 -0.892521 -0.437124 
-164.33 150.271 546.537 56 56 56 -0.364132 0.443636 -0.818899 
-136.061 148.068 541.553 146 146 146 -0.0222918 -0.913963 -0.405186 
-35.0121 141.388 523.749 104 104 104 0.876335 -0.174097 -0.44914 
23.0776 138.566 513.528 255 255 255 -0.234769 0.223786 -0.94594 
185.423 142.905 515.435 26 26 26 -0.161282 -0.935987 -0.312915 
194.333 142.657 513.166 23 23 23 -0.16826 -0.8413 -0.513714 
-158.438 151.153 549.642 98 98 98 -0.335551 0.226101 -0.914485 
-129.881 147.816 540.335 138 138 138 -0.203716 -0.905885 -0.371312 
-120.32 146.924 537.96 149 149 149 0.24657 -0.814147 -0.525707 
-94.236 145.48 534.857 162 162 162 -0.15233 -0.874811 -0.459892 
-43.3973 141.363 522.5 184 184 184 -0.172264 -0.864265 -0.472622 
-30.8205 140.238 518.729 174 174 174 0.388603 -0.649876 -0.653184 
-20.5619 139.793 517.303 185 185 185 -0.352824 -0.853305 -0.383909 
-15.9235 140.706 520.756 112 112 112 0.811641 -0.314847 -0.492047 
-14.8227 138.91 514.12 117 117 117 0.789638 -0.0977925 -0.60573 
-12.8675 142.096 525.936 79 79 79 0.811683 -0.182893 -0.554726 
-8.78441 139.224 515.339 180 180 180 0.0402584 -0.837097 -0.545571 
4.44518 138.023 510.909 135 135 135 0.87453 -0.0424263 -0.483113 
7.57545 138.187 511.495 174 174 174 0.0207768 -0.801983 -0.596986 
26.5182 136.876 506.331 163 163 163 0.217984 0.0273969 -0.975568 
64.9323 132.69 489.153 44 44 44 0.0240172 -0.986991 -0.158971 
72.1415 136.183 501.681 45 45 45 0.049223 0.200494 -0.978458 
93.3584 133.184 488.899 77 77 77 -0.102716 -0.831854 -0.545407 
98.4071 133.029 487.874 78 78 78 -0.258304 -0.85439 -0.450885 
115.317 135.991 497.315 16 16 16 0.720596 -0.38574 -0.576148 
138.576 144.435 526.445 6 6 6 0.297939 -0.775916 -0.556046 
152.582 144.001 523.136 35 35 35 -0.317672 -0.886772 -0.335739 
172.11 143.41 518.34 28 28 28 -0.278943 -0.849158 -0.448466 
180.665 143.214 516.391 27 27 27 -0.239542 -0.866268 -0.438407 
164.814 111.882 399.829 11 11 11 -0.714285 -0.64747 -0.265669 
-172.59 151.182 547.02 72 72 72 -0.146033 -0.839322 -0.523654 
-77.8732 144.561 531.71 148 148 148 -0.194772 -0.771419 -0.605786 
-62.1285 143.726 529.539 240 240 240 -0.438907 0.170605 -0.882188 
-56.0437 142.984 527.092 239 239 239 -0.128739 0.0684286 -0.989315 
-37.7635 141.017 520.539 179 179 179 0.474884 -0.578922 -0.662823 
1.10702 139.002 513.685 96 96 96 0.468827 -0.702406 -0.535563 
10.6894 138.266 510.907 107 107 107 -0.182824 -0.919789 -0.347224 
37.4837 137.579 507.759 195 195 195 -0.530202 0.25033 -0.810074 
161.569 112.825 403.218 9 9 9 -0.734369 -0.665569 -0.133114 
-176.994 154.202 556.855 74 74 74 -0.52374 -0.743744 -0.41538 
-161.307 150.674 545.602 63 63 63 -0.340521 0.676155 -0.653345 
-154.438 151.071 547.927 103 103 103 -0.372815 0.210343 -0.90375 
-125.367 148.6 541.885 118 118 118 0.824111 -0.295554 -0.483207 
-104.747 147.854 541.018 150 150 150 0.851643 -0.148048 -0.502777 
-74.7807 145.58 534.792 196 196 196 -0.226266 0.631984 -0.741215 
-5.8533 139.494 514.638 183 183 183 -0.148048 -0.851643 -0.502777 
13.7955 138.332 510.259 186 186 186 -0.241307 -0.795534 -0.555784 
19.0464 136.064 501.81 94 94 94 0.583137 -0.676706 -0.449467 
29.621 137.352 506.318 125 125 125 -0.141086 -0.812361 -0.565831 
55.1597 135.975 500.225 118 118 118 -0.590048 0.299022 -0.749953 
87.7288 134.882 494.028 35 35 35 0.802405 -0.24367 -0.544766 
101.098 133.041 486.019 81 81 81 -0.141048 -0.8062 -0.574584 
146.402 144.566 524.213 35 35 35 -0.258304 -0.85439 -0.450885 
163.305 144.076 520.237 28 28 28 -0.266331 -0.880247 -0.392725 
-117.383 147.524 537.738 153 153 153 0.00132182 -0.881656 -0.471891 
-112.135 147.169 536.908 153 153 153 -0.218916 -0.877154 -0.427408 
-91.6135 145.751 533.363 159 159 159 -0.22261 -0.891912 -0.393621 
-75.0697 144.566 530.126 149 149 149 -0.427336 -0.606916 -0.670102 
-33.798 142.974 526.144 131 131 131 0.894039 -0.0873247 -0.439396 
1.53224 137.368 505.96 106 106 106 0.872133 -0.0856685 -0.48171 
5.86863 140.745 518.379 27 27 27 -0.689844 -0.723564 -0.0238846 
20.9528 138.752 510.84 86 86 86 0.840262 -0.372228 -0.394216 
43.7018 137.342 504.958 125 125 125 -0.120801 0.290719 -0.949152 
77.3753 134.469 492.451 92 92 92 -0.167756 -0.84769 -0.503269 
82.5101 134.031 490.449 90 90 90 0.0402178 -0.844574 -0.533926 
107.476 135.078 492.167 7 7 7 0.802405 -0.24367 -0.544766 
110.873 135.781 494.449 106 106 106 -0.0379674 -0.794503 -0.606072 
155.293 144.407 521.621 30 30 30 -0.112581 -0.9076 -0.404459 
167.054 144.139 519.078 30 30 30 -0.13024 -0.883057 -0.450831 
187.689 143.441 513.531 24 24 24 -0.205409 -0.820113 -0.534062 
-169.589 151.627 546.251 61 61 61 -0.242061 -0.870517 -0.428493 
-158.422 150.722 544.266 57 57 57 -0.179683 0.548109 -0.816879 
-142.214 151.226 548.041 73 73 73 0.919789 -0.182824 -0.347224 
-101.475 146.357 533.925 161 161 161 0.321291 -0.728152 -0.605448 
-72.1944 144.161 527.92 160 160 160 -0.345946 0.732495 -0.586321 
-49.9749 142.805 524.071 118 118 118 -0.0925262 0.237019 -0.967089 
-17.6518 140.899 517.985 92 92 92 0.767554 -0.31888 -0.556036 
-3.15031 139.601 513.332 193 193 193 -0.253931 -0.838741 -0.481699 
34.9017 138.564 508.939 165 165 165 -0.0384591 0.404484 -0.913736 
62.2688 135.683 497.089 187 187 187 -0.411895 0.1468 -0.899329 
141.329 145.08 524.941 34 34 34 -0.0894802 -0.904438 -0.417115 
149.207 144.816 523.013 33 33 33 -0.0839959 -0.841383 -0.533872 
174.788 144.061 516.826 25 25 25 -0.0205817 -0.83836 -0.544728 
201.311 143.193 509.637 24 24 24 -0.0873247 -0.894039 -0.439396 
-133.728 149.041 539.905 175 175 175 -0.27458 -0.411111 -0.869249 
-106.964 147.687 537.478 118 118 118 0.765576 -0.385226 -0.515261 
-88.4967 146.101 533.102 125 125 125 0.662331 -0.467824 -0.585199 
-85.9485 146.947 536.408 165 165 165 0.859633 -0.260172 -0.439706 
-69 145.461 532.019 92 92 92 0.470875 0.253076 -0.845121 
-52.6486 144.715 530.109 123 123 123 0.912306 -0.0662267 -0.404118 
-28.0609 141.164 517.897 177 177 177 -0.0789498 -0.8139 -0.575616 
16.4094 138.501 508.307 185 185 185 -0.363694 -0.821091 -0.439927 
33.73 137.635 504.717 121 121 121 -0.358286 -0.600415 -0.714936 
35.0877 136.909 502.004 170 170 170 -0.295476 0.898308 -0.325172 
52.4143 136.896 501.249 36 36 36 0.116704 0.423226 -0.898476 
65.9805 135.92 496.913 63 63 63 0.518269 -0.129932 -0.84529 
158.065 144.647 520.372 31 31 31 -0.108929 -0.881334 -0.459765 
-151.454 151.734 547.01 98 98 98 -0.404212 0.168302 -0.899048 
-127.212 148.919 539.215 106 106 106 0.60232 -0.445483 -0.662386 
-109.584 147.311 534.955 143 143 143 -0.192452 -0.854844 -0.481875 
-82.8136 145.398 530.024 167 167 167 0.356274 -0.806809 -0.471304 
-65.8711 145.474 531.36 255 255 255 -0.422405 0.185624 -0.887197 
-25.0907 141.223 517.321 178 178 178 -0.154598 -0.885687 -0.437787 
46.491 137.764 503.875 164 164 164 -0.445041 0.296177 -0.845114 
95.6564 134.077 487.07 81 81 81 -0.200509 -0.800504 -0.564792 
177.598 144.178 515.081 30 30 30 -0.0876507 -0.889028 -0.449384 
182.865 144.147 514.213 25 25 25 -0.085382 -0.877615 -0.471701 
-166.663 151.907 544.862 52 52 52 -0.344751 -0.829607 -0.439203 
-155.461 151.154 543.448 71 71 71 -0.480198 0.106869 -0.870626 
-156.122 152.984 550.173 65 65 65 -0.294734 0.763123 -0.57513 
-145.315 151.143 544.595 126 126 126 0.0231553 -0.00704728 -0.999707 
-98.5443 146.894 533.462 167 167 167 -0.0628259 -0.861414 -0.504004 
-59.4898 144.9 528.706 254 254 254 -0.347043 0.185562 -0.919309 
-16.3023 139.704 511.061 107 107 107 0.844879 0.00134749 -0.534955 
21.0931 137.647 503.417 123 123 123 0.811683 -0.182893 -0.554726 
89.1688 134.212 487.307 64 64 64 0.174654 -0.776073 -0.605975 
104.677 134.581 487.286 16 16 16 0.837029 -0.276947 -0.471893 
113.668 136.866 494.846 35 35 35 0.566981 -0.513143 -0.644373 
169.39 144.687 517.237 25 25 25 -0.0856685 -0.872133 -0.48171 
190.262 144.042 511.841 27 27 27 -0.248793 -0.820552 -0.514584 
195.605 143.911 510.544 22 22 22 -0.202973 -0.91122 -0.358442 
-148.642 151.825 545.82 110 110 110 -0.397265 0.212559 -0.892748 
-140.129 150.48 541.796 114 114 114 0.700318 0.290063 -0.652241 
-46.9132 143.471 523.163 246 246 246 -0.354913 0.238069 -0.904079 
-40.9977 142.787 520.882 248 248 248 -0.373533 0.0849551 -0.923718 
-12.5488 140.373 512.706 108 108 108 0.745017 -0.352219 -0.566473 
-0.90607 139.952 511.228 179 179 179 0.147955 -0.856969 -0.493673 
25.32 140.583 513.223 207 207 207 -0.137191 0.356142 -0.924306 
66.2617 134.928 490.781 44 44 44 0.901379 -0.180276 -0.393722 
79.714 135.116 490.556 97 97 97 -0.352219 -0.745017 -0.566473 
137.27 145.658 523.988 6 6 6 0.438317 -0.534251 -0.72281 
166.656 112.862 397.629 6 6 6 -0.901762 -0.296652 -0.314362 
-173.953 152.619 544.703 69 69 69 -0.245565 -0.885524 -0.394393 
-163.717 152.134 544.219 58 58 58 -0.0475453 -0.944481 -0.325107 
-152.429 151.262 542.364 65 65 65 -0.502637 0.336687 -0.79624 
-121.479 148.447 535.329 154 154 154 0.471932 -0.602931 -0.643238 
-115.069 148.408 535.801 143 143 143 -0.0873247 -0.894039 -0.439396 
-95.561 147.104 532.691 162 162 162 -0.150329 -0.862566 -0.483095 
-79.7101 145.949 529.611 82 82 82 -0.401369 -0.797903 -0.449727 
-22.5313 141.435 515.588 189 189 189 -0.363694 -0.821091 -0.439927 
39.8662 139.15 506.705 143 143 143 0.250069 -0.149512 -0.956614 
57.7156 137.337 499.275 134 134 134 -0.52677 0.298978 -0.795692 
89.7949 137.236 496.735 13 13 13 -0.94667 -0.286829 0.146781 
143.73 145.845 523.044 35 35 35 -0.111038 -0.892521 -0.437124 
160.793 145.316 518.952 30 30 30 -0.276395 -0.908156 -0.314418 
-124.04 150.938 543.344 139 139 139 0.783099 -0.280017 -0.555289 
-90.687 146.651 530.52 157 157 157 -0.087968 -0.883869 -0.459388 
-69.7827 145.827 528.909 95 95 95 0.7125 -0.529808 -0.460052 
-54.0242 145.21 527.478 169 169 169 0.674905 -0.0830876 -0.733212 
-36.0203 143.368 521.448 105 105 105 0.881334 -0.108929 -0.459765 
-9.4194 140.888 512.924 180 180 180 -0.0403537 -0.83073 -0.555211 
3.09289 139.569 508.146 136 136 136 0.878325 -0.130388 -0.459939 
5.98706 139.802 508.978 163 163 163 0.394855 -0.698843 -0.596412 
37.5931 138.344 503.013 86 86 86 -0.69219 0.391525 -0.606285 
72.6954 136.123 493.107 118 118 118 -0.470875 0.253076 -0.845121 
82.1424 133.195 481.704 23 23 23 -0.350682 0.84943 -0.394323 
92.107 134.763 486.642 75 75 75 -0.0181154 -0.756667 -0.653549 
98.3487 134.509 485.162 86 86 86 -0.339831 -0.820337 -0.459958 
151.282 145.746 520.874 35 35 35 -0.156163 -0.895431 -0.416913 
164.497 145.345 517.685 29 29 29 -0.224406 -0.896158 -0.38281 
172.005 145.052 515.577 28 28 28 -0.13024 -0.883057 -0.450831 
198.292 144.381 509.237 25 25 25 -0.106506 -0.876192 -0.470048 
-149.608 151.326 541.096 69 69 69 -0.355496 0.560027 -0.748326 
-137.094 151.027 541.404 147 147 147 -0.255433 0.328413 -0.90934 
-131.062 150.155 538.839 171 171 171 -0.263552 0.0383573 -0.963882 
-63.2337 144.861 524.879 178 178 178 0.158732 0.00788031 -0.98729 
-62.3913 146.664 531.495 186 186 186 -0.190312 0.843667 -0.502004 
-19.5803 141.714 514.962 99 99 99 0.617217 -0.47931 -0.623944 
9.09824 140.022 508.918 179 179 179 -0.116304 -0.787628 -0.605075 
24.8837 138.821 504.293 173 173 173 0.255725 -0.776588 -0.575774 
49.4273 139.065 504.333 93 93 93 0.671779 0.00137942 -0.74075 
146.675 146.005 521.509 33 33 33 -0.13024 -0.883057 -0.450831 
179.955 144.999 513.38 27 27 27 -0.0999195 -0.818182 -0.566211 
185.101 144.884 512.208 25 25 25 -0.0204299 -0.851247 -0.524368 
162.541 114.051 400.647 13 13 13 -0.6897 -0.6897 -0.220516 
-171.139 153.003 543.711 74 74 74 -0.0645388 -0.891185 -0.449025 
-160.879 152.465 543.026 68 68 68 0.0463715 -0.918156 -0.393496 
-118.306 149.029 535.083 161 161 161 -0.0425605 -0.869057 -0.492878 
-112.342 148.635 534.198 144 144 144 -0.332039 -0.857124 -0.393814 
-32.1168 142.681 517.352 174 174 174 -0.0717439 0.316978 -0.945716 
-6.49917 141.147 512.198 184 184 184 -0.104571 -0.858054 -0.5028 
12.1884 140.002 507.977 177 177 177 -0.167756 -0.84769 -0.503269 
18.084 137.596 499.16 94 94 94 0.759934 -0.382408 -0.525608 
27.9863 139.13 504.511 103 103 103 -0.215049 -0.855684 -0.470701 
31.0346 138.959 503.804 171 171 171 0.00133921 -0.858436 -0.512919 
43.7434 138.065 500.113 159 159 159 0.19685 -0.19685 -0.960469 
192.569 144.851 510.096 24 24 24 -0.150026 -0.869569 -0.47047 
-146.533 151.358 539.745 70 70 70 -0.456922 0.25826 -0.851189 
-102.501 147.92 531.566 160 160 160 0.24367 -0.802405 -0.544766 
-76.9634 146.516 528.353 160 160 160 -0.20254 -0.896129 -0.39488 
-60.2281 145.28 524.829 144 144 144 -0.198454 -0.601516 -0.773818 
-44.1018 144.399 522.345 252 252 252 -0.374587 0.250218 -0.892791 
4.71801 142.406 515.919 125 125 125 0.942926 0.260165 -0.207857 
36.7646 136.74 494.746 83 83 83 -0.143323 -0.825952 -0.545217 
42.7281 139.975 506.263 252 252 252 -0.308519 0.397545 -0.864161 
46.8556 138.429 500.481 112 112 112 -0.045265 -0.940219 -0.337548 
60.7435 138.135 498.72 144 144 144 -0.47005 0.312842 -0.825338 
109.354 137.426 492.366 112 112 112 -0.121961 -0.815525 -0.565725 
153.97 146.133 519.32 30 30 30 -0.106506 -0.876192 -0.470048 
174.891 145.459 514.042 29 29 29 -0.260172 -0.859633 -0.439706 
202.124 144.691 507.162 21 21 21 -0.17624 -0.887025 -0.426762 
-143.201 153.153 545.806 58 58 58 0.740112 0.110795 -0.663294 
-105.575 150.198 538.727 151 151 151 0.864265 -0.172264 -0.472622 
-56.8792 146.354 528.028 222 222 222 -0.232272 0.600167 -0.765408 
-3.8048 141.209 510.756 181 181 181 -0.285597 -0.862899 -0.416941 
0.206879 139.083 503.072 94 94 94 0.84943 -0.350682 -0.394323 
49.8693 138.502 499.788 74 74 74 0.146316 -0.983099 -0.110039 
54.6443 138.961 501.221 202 202 202 -0.307907 0.0605508 -0.949488 
139.831 146.813 522.652 33 33 33 -0.223311 -0.885851 -0.406693 
166.782 145.843 515.697 28 28 28 -0.0630104 -0.855542 -0.513885 
187.704 145.276 510.641 24 24 24 -0.190312 -0.843667 -0.502004 
-168.269 153.324 542.499 68 68 68 -0.152159 -0.879622 -0.45068 
-157.967 152.709 541.532 51 51 51 -0.296652 -0.901762 -0.314362 
-143.455 151.367 538.32 75 75 75 -0.357508 0.535454 -0.765165 
-125.554 151.361 540.211 118 118 118 0.865466 -0.19447 -0.461681 
-93.7332 147.843 530.238 155 155 155 -0.344751 -0.829607 -0.439203 
-87.0491 148.77 534.106 159 159 159 0.856969 -0.147955 -0.493673 
-83.8629 146.887 527.493 167 167 167 0.370522 -0.736147 -0.566393 
-74.2039 146.564 526.965 160 160 160 -0.287081 -0.873393 -0.393407 
-50.7652 145.624 524.796 132 132 132 0.49444 0.314356 -0.810376 
-34.5882 145.194 523.827 119 119 119 0.881437 -0.290799 -0.372162 
-15.0296 142.119 513.127 116 116 116 0.908676 -0.136231 -0.394649 
14.8088 140.27 506.423 184 184 184 -0.358807 -0.811701 -0.460868 
63.8669 138.237 497.27 169 169 169 -0.241424 0.295709 -0.924268 
75.4368 137.075 492.309 97 97 97 -0.413863 0.338899 -0.844905 
100.906 135.28 483.706 41 41 41 0.591414 -0.460734 -0.661781 
156.693 146.332 517.949 33 33 33 -0.219783 -0.871658 -0.438072 
-175.222 153.73 542.166 52 52 52 0.0011926 -0.967197 -0.254023 
-140.349 151.344 537.68 55 55 55 -0.183669 -0.0660248 -0.980768 
-107.737 149.721 535.021 117 117 117 0.778284 -0.346441 -0.52369 
-67.4164 148.131 532.174 117 117 117 0.666212 -0.602763 -0.439132 
-57.3357 145.628 523.651 161 161 161 -0.261148 -0.628338 -0.732798 
-27.2857 143.149 515.783 239 239 239 -0.298096 0.0984898 -0.949441 
17.9001 140.446 506.182 95 95 95 0.632822 -0.518071 -0.575446 
52.3153 138.465 497.9 155 155 155 -0.384921 -0.642636 -0.662461 
70.0697 137.79 494.452 40 40 40 -0.0412721 0.414052 -0.909317 
83.6004 136.852 490.091 33 33 33 0.490672 -0.0481051 -0.870015 
182.15 145.697 511.261 25 25 25 -0.0898364 -0.899746 -0.427068 
-165.301 153.52 541.767 71 71 71 0.0221486 -0.918515 -0.394766 
-154.998 152.875 540.679 77 77 77 -0.0888407 -0.914376 -0.394999 
-134.405 152.134 540.312 166 166 166 -0.349797 0.154691 -0.923966 
-109.886 149.354 532.612 122 122 122 0.695278 -0.416503 -0.585759 
-99.5301 148.612 530.812 168 168 168 -0.0645388 -0.891185 -0.449025 
-54.4179 145.413 522.156 174 174 174 -0.599301 -0.303667 -0.740692 
-38.6938 144.737 520.344 251 251 251 -0.386608 0.182525 -0.904002 
-16.9698 143.816 517.538 108 108 108 0.873134 -0.128021 -0.47037 
1.75296 140.389 505.313 117 117 117 0.884998 -0.0646888 -0.46108 
22.8664 142.676 513.292 110 110 110 0.382754 0.57331 -0.724441 
33.3444 139.588 501.896 178 178 178 -0.297612 -0.836742 -0.459663 
66.9759 138.79 497.451 55 55 55 0.667033 -0.133407 -0.732987 
