ply
format ascii 1.0
comment Created by CloudCompare v2.11.1 (Anoia)
comment Created 2022/7/21 下午5:18
obj_info Generated by CloudCompare!
element vertex 695
property float x
property float y
property float z
property uchar red
property uchar green
property uchar blue
property float nx
property float ny
property float nz
end_header
0.0398969 -0.0220122 8.56098 52 101 164 -0.156862 -0.479382 -0.863474 
0.211429 -0.0218984 8.51581 52 101 164 -0.365892 -0.49484 -0.788198 
0.295955 -0.0219331 8.5285 52 101 164 0.485539 0.807109 -0.335897 
0.401196 -0.018654 7.25135 52 101 164 -0.842901 -0.398775 -0.361243 
0.523463 -0.018352 7.13142 52 101 164 -0.503916 -0.795068 -0.337544 
0.762095 -0.0179008 6.94913 52 101 164 -0.7125 -0.529808 -0.460052 
1.16366 -0.0171759 6.64978 52 101 164 -0.710974 -0.582306 -0.394253 
1.25875 -0.0170141 6.5816 52 101 164 -0.802915 -0.456748 -0.383027 
1.30369 -0.0169268 6.545 52 101 164 -0.685075 -0.484075 -0.544375 
1.45892 -0.0166411 6.42404 52 101 164 -0.646203 -0.287023 -0.707135 
1.51942 -0.0165321 6.37751 52 101 164 -0.678574 -0.38469 -0.625741 
1.88819 -0.0159328 6.11598 52 101 164 -0.602763 -0.666212 -0.439132 
-1.17154 -0.0191357 8.91432 52 101 164 -0.449404 -0.522369 -0.724684 
-0.987431 -0.0190017 8.8571 52 101 164 -0.401148 -0.572833 -0.714803 
-0.704912 -0.0187964 8.76779 52 101 164 -0.152003 -0.766036 -0.624567 
-0.490553 -0.0186731 8.71375 52 101 164 -0.306259 -0.413988 -0.857216 
-0.42977 -0.0186342 8.69636 52 101 164 -0.229284 -0.229284 -0.945969 
0.00317267 -0.0183554 8.56858 52 101 164 -0.22536 -0.473407 -0.851527 
0.427013 -0.01546 7.21333 52 101 164 -0.825534 -0.524511 -0.208284 
0.618461 -0.015135 7.05774 52 101 164 -0.893398 0.0226345 -0.448696 
0.831195 -0.0148056 6.89798 52 101 164 -0.761347 -0.456808 -0.460083 
0.925942 -0.0146533 6.82366 52 101 164 -0.12993 -0.754189 -0.643674 
1.0715 -0.0144236 6.71069 52 101 164 -0.900661 -0.226996 -0.370516 
1.40824 -0.0139077 6.45336 52 101 164 -0.792064 -0.475884 -0.38232 
1.7833 -0.0133877 6.18733 52 101 164 -0.453179 -0.712138 -0.536179 
2.0698 -0.0130065 5.98894 52 101 164 -0.344325 -0.544778 -0.764629 
2.33088 -0.0132492 6.08529 52 101 164 0.253246 -0.769177 -0.586714 
-1.27082 -0.0153293 8.93136 52 101 164 -0.304496 -0.684712 -0.662157 
-1.14297 -0.0152748 8.90274 52 101 164 -0.581802 -0.274255 -0.765696 
-1.05446 -0.0152197 8.87257 52 101 164 -0.17333 -0.391067 -0.903894 
-0.950613 -0.0151524 8.8354 52 101 164 -0.363702 -0.575726 -0.732298 
-0.77503 -0.0150715 8.7914 52 101 164 0.213222 -0.645892 -0.733048 
-0.559251 -0.0149666 8.73319 52 101 164 -0.185745 -0.479965 -0.857399 
-0.353803 -0.0148477 8.66572 52 101 164 -0.162789 -0.731789 -0.661805 
-0.267484 -0.0148056 8.64173 52 101 164 -0.432039 -0.612195 -0.662238 
-0.0483714 -0.0147039 8.58298 52 101 164 -0.0860542 -0.701561 -0.707395 
0.0728158 -0.014639 8.54494 52 101 164 -0.25033 -0.530202 -0.810074 
0.236574 -0.0145632 8.49994 52 101 164 -0.188333 -0.617058 -0.764049 
0.32901 -0.0125255 7.30957 52 101 164 -0.924466 -0.381263 -0.00127513 
0.459443 -0.0123175 7.1866 52 101 164 -0.17624 -0.887025 -0.426762 
0.713759 -0.0119648 6.97619 52 101 164 -0.0225531 -0.898144 -0.439122 
0.963628 -0.0116676 6.79631 52 101 164 -0.901379 -0.180276 -0.393722 
1.12863 -0.0114545 6.66667 52 101 164 -0.803122 -0.264576 -0.533849 
1.20936 -0.0113392 6.59648 52 101 164 -0.413777 -0.505364 -0.757229 
1.36975 -0.0111637 6.48787 52 101 164 -0.827302 -0.0814443 -0.555821 
1.58726 -0.0109087 6.3295 52 101 164 -0.765465 -0.340028 -0.5463 
1.68608 -0.010785 6.25262 52 101 164 -0.613453 -0.528956 -0.586414 
1.84263 -0.0106071 6.14107 52 101 164 -0.416891 0.0197267 -0.908743 
2.10723 -0.0103349 5.96876 52 101 164 -0.492141 -0.518833 -0.699006 
-1.19652 -0.0114362 8.89859 52 101 164 -0.439544 -0.626727 -0.643439 
-0.876104 -0.0113254 8.81572 52 101 164 -0.11082 -0.642758 -0.758011 
-0.845106 -0.0113178 8.81006 52 101 164 -0.271361 -0.614132 -0.741084 
-0.635565 -0.0112372 8.74894 52 101 164 -0.136777 -0.692906 -0.707936 
-0.237701 -0.0110922 8.63777 52 101 164 -0.0916066 -0.617981 -0.780838 
0.156634 -0.0109377 8.51727 52 101 164 -0.408759 -0.577559 -0.706641 
0.549399 -0.00913265 7.1092 52 101 164 -0.740662 -0.606287 -0.289546 
0.783994 -0.00890577 6.92994 52 101 164 -0.807199 -0.406006 -0.428473 
1.01823 -0.00867388 6.74599 52 101 164 -0.44191 -0.662032 -0.605334 
1.17981 -0.00852301 6.62579 52 101 164 -0.764843 -0.510439 -0.393022 
1.62019 -0.00810509 6.2919 52 101 164 -0.839219 -0.396864 -0.371766 
1.71641 -0.00802731 6.22948 52 101 164 -0.731766 -0.571334 -0.371613 
1.90577 -0.00785467 6.0916 52 101 164 -0.761638 -0.171787 -0.624817 
2.02376 -0.00776134 6.01708 52 101 164 -0.0688966 -0.39852 -0.914568 
2.36205 -0.00786188 6.0916 52 101 164 0.440404 -0.696337 -0.566709 
-1.33511 -0.00764068 8.94526 52 101 164 -0.504147 -0.457865 -0.732253 
-1.10999 -0.00759265 8.88609 52 101 164 -0.560539 -0.334385 -0.757616 
-0.817078 -0.00751726 8.79491 52 101 164 -0.266392 -0.565886 -0.780261 
-0.402981 -0.00742367 8.6827 52 101 164 0.0153592 -0.679996 -0.733055 
-0.118594 -0.00735526 8.60177 52 101 164 -0.376462 -0.532913 -0.757813 
0.102054 -0.00730036 8.53735 52 101 164 -0.303667 -0.599301 -0.740692 
0.266272 -0.00728206 8.51609 52 101 164 0.394938 0.739075 -0.545703 
0.479396 -0.00612284 7.16122 52 101 164 -0.829607 -0.344751 -0.439203 
0.644011 -0.00601608 7.03736 52 101 164 -0.283182 -0.858731 -0.42707 
0.74332 -0.0059582 6.97046 52 101 164 -0.560804 -0.681335 -0.470406 
1.32077 -0.00556144 6.5152 52 101 164 -0.567837 -0.341349 -0.749027 
1.74131 -0.00528727 6.20772 52 101 164 -0.522954 -0.546495 -0.654112 
1.93523 -0.00516169 6.07001 52 101 164 -0.658568 -0.234192 -0.715152 
-1.24276 -0.00377819 8.92511 52 101 164 -0.14635 -0.734766 -0.662345 
-1.02957 -0.00375668 8.85678 52 101 164 -0.255135 -0.505631 -0.824163 
-0.923094 -0.00374768 8.82795 52 101 164 -0.348503 -0.552742 -0.756982 
-0.605201 -0.00372029 8.74555 52 101 164 -0.251758 -0.704605 -0.663437 
-0.539218 -0.00370762 8.71299 52 101 164 -0.339998 -0.600284 -0.72392 
-0.459403 -0.00369968 8.69134 52 101 164 -0.358286 -0.600415 -0.714936 
-0.304838 -0.00368355 8.64895 52 101 164 -0.284011 -0.402476 -0.870259 
-0.211397 -0.00367344 8.62336 52 101 164 -0.261578 -0.490652 -0.831167 
-0.170426 -0.003668 8.60997 52 101 164 -0.380344 -0.673424 -0.633907 
0.185638 -0.00362391 8.50639 52 101 164 -0.214971 -0.598516 -0.77173 
0.291624 -0.00311614 7.31702 52 101 164 0.812156 0.384537 -0.438787 
0.330807 -0.00309991 7.28 52 101 164 -0.976528 0.168798 -0.133788 
0.375926 -0.00308441 7.24503 52 101 164 0.0476722 -0.971779 -0.231027 
0.984305 -0.00286736 6.77564 52 101 164 -0.528956 -0.613453 -0.586414 
1.09546 -0.00282821 6.69578 52 101 164 -0.66254 -0.491454 -0.565256 
1.8061 -0.0025519 6.16916 52 101 164 -0.502562 -0.354844 -0.788364 
1.97838 -0.00248174 6.04822 52 101 164 -0.64494 -0.453971 -0.614787 
-1.40001 7.9403e-05 8.96125 52 101 164 -0.626041 -0.464915 -0.626041 
-1.30609 7.25597e-05 8.93332 52 101 164 -0.550839 -0.428431 -0.716256 
-0.754332 4.1498e-05 8.77115 52 101 164 -0.237764 -0.666054 -0.706994 
-0.681294 3.85852e-05 8.75554 52 101 164 -0.184331 -0.514029 -0.837733 
-0.0926149 2.55414e-05 8.58827 52 101 164 -0.348529 -0.652879 -0.672515 
-0.0225483 2.52455e-05 8.56463 52 101 164 -0.406811 -0.639275 -0.652558 
0.0214954 2.51893e-05 8.54594 52 101 164 -0.369226 -0.687581 -0.625223 
0.575673 3.21756e-05 7.09312 52 101 164 -0.571106 -0.694319 -0.437904 
0.677545 3.64694e-05 7.00701 52 101 164 -0.851084 -0.30429 -0.427859 
0.804666 4.30187e-05 6.90125 52 101 164 -0.721084 -0.562676 -0.404269 
0.849838 4.56634e-05 6.87936 52 101 164 -0.61246 -0.58209 -0.534848 
0.887547 4.80121e-05 6.84774 52 101 164 -0.379528 -0.754169 -0.5359 
1.26572 7.8723e-05 6.55761 52 101 164 -0.568256 -0.625588 -0.534532 
1.47361 0.000101647 6.40086 52 101 164 -0.554792 -0.678824 -0.481044 
1.53768 0.000109587 6.35877 52 101 164 -0.198011 -0.161773 -0.966758 
2.28151 0.00023121 6.06828 52 101 164 -0.303931 -0.734902 -0.606254 
-1.37088 0.00393788 8.94973 52 101 164 -0.0119412 -0.460401 -0.887631 
-1.16855 0.00389338 8.89157 52 101 164 -0.506712 -0.480131 -0.716043 
-1.00053 0.00385616 8.83742 52 101 164 -0.365889 -0.644818 -0.67107 
-0.508539 0.00376861 8.70097 52 101 164 -0.17955 -0.719736 -0.670628 
-0.432512 0.00375522 8.6764 52 101 164 -0.441616 -0.594931 -0.671589 
0.127428 0.00368084 8.51939 52 101 164 -0.421099 -0.667434 -0.614172 
1.04236 0.00296356 6.73077 52 101 164 -0.523166 -0.499766 -0.690312 
1.23567 0.00292377 6.58211 52 101 164 -0.391934 -0.733032 -0.555924 
1.86208 0.00284089 6.12206 52 101 164 -0.617058 -0.188333 -0.764049 
-1.22024 0.00773879 8.90237 52 101 164 -0.192732 -0.69846 -0.689209 
-1.1365 0.0077119 8.8824 52 101 164 -0.093594 -0.548605 -0.830827 
-1.08552 0.00769994 8.87502 52 101 164 -0.427003 -0.519328 -0.740248 
-0.901758 0.00762248 8.80588 52 101 164 -0.381189 -0.635314 -0.671618 
-0.793147 0.00759277 8.78204 52 101 164 -0.298978 -0.52677 -0.795692 
-0.726904 0.00756843 8.75958 52 101 164 -0.360546 -0.485535 -0.796406 
-0.581266 0.00752929 8.72523 52 101 164 -0.130048 -0.745908 -0.65323 
-0.379828 0.00746776 8.66506 52 101 164 -0.44064 -0.44064 -0.782095 
-0.338218 0.00745142 8.64783 52 101 164 -0.216916 -0.71629 -0.663232 
-0.144286 0.00739981 8.59333 52 101 164 -0.123198 -0.621925 -0.773325 
0.0507664 0.00734961 8.53595 52 101 164 -0.326388 -0.461989 -0.824643 
0.214528 0.00731574 8.49382 52 101 164 -0.243178 -0.404302 -0.881706 
0.39984 0.0062325 7.22684 52 101 164 -0.295554 -0.824111 -0.483207 
0.502698 0.00616534 7.14185 52 101 164 -0.825534 -0.208284 -0.524511 
1.38861 0.00570359 6.4686 52 101 164 -0.468716 -0.491903 -0.733714 
1.42833 0.00568782 6.44061 52 101 164 -0.606766 -0.215705 -0.765053 
1.50259 0.0056611 6.39067 52 101 164 -0.685725 -0.172577 -0.707106 
1.64323 0.00559314 6.27185 52 101 164 -0.762928 -0.361217 -0.536156 
2.0456 0.00547647 5.99943 52 101 164 -0.855542 -0.0630104 -0.513885 
2.13624 0.00545716 5.94105 52 101 164 -0.220558 -0.794319 -0.566049 
2.246 0.00558548 6.05707 52 101 164 0.394855 -0.698843 -0.596412 
2.31271 0.00561592 6.06773 52 101 164 0.133475 -0.676373 -0.724364 
-1.28095 0.0116076 8.92073 52 101 164 0.0583876 -0.602389 -0.796064 
-1.06012 0.0114926 8.85562 52 101 164 -0.289298 -0.542236 -0.788851 
-0.968729 0.0114436 8.82635 52 101 164 0.029443 -0.623911 -0.78094 
-0.65383 0.0113027 8.74129 52 101 164 -0.224315 -0.376791 -0.898727 
-0.282035 0.0111414 8.6329 52 101 164 -0.243901 -0.486268 -0.83908 
-0.237138 0.0111199 8.61732 52 101 164 -0.209017 -0.630146 -0.747815 
-0.0666888 0.011057 8.57098 52 101 164 -0.325707 -0.607663 -0.724334 
0.0799853 0.0110013 8.52759 52 101 164 0.00138094 -0.716707 -0.697373 
0.410637 0.00929921 7.19819 52 101 164 -0.850772 -0.402833 -0.337509 
0.594927 0.0091455 7.06749 52 101 164 -0.61066 -0.553146 -0.566679 
0.938689 0.00885535 6.80849 52 101 164 -0.678574 -0.38469 -0.625741 
1.14605 0.0086873 6.64911 52 101 164 -0.308694 -0.65456 -0.690116 
1.28786 0.00857465 6.5379 52 101 164 -0.767452 -0.408982 -0.493711 
1.3467 0.00854131 6.50134 52 101 164 -0.771279 -0.342969 -0.536192 
1.55826 0.00838786 6.33838 52 101 164 -0.450532 -0.389606 -0.803261 
1.5987 0.00835996 6.30744 52 101 164 -0.614586 0.219384 -0.75773 
1.75993 0.00825265 6.18417 52 101 164 -0.806885 -0.0791064 -0.585387 
-0.87093 0.0151859 8.8019 52 101 164 -0.272968 -0.662467 -0.697586 
-0.839065 0.0151557 8.78661 52 101 164 -0.3296 -0.615361 -0.716027 
-0.622826 0.0150333 8.72875 52 101 164 -0.290799 -0.372162 -0.881437 
-0.199772 0.014788 8.60084 52 101 164 -0.140017 -0.709116 -0.69105 
0.2409 0.0146578 8.52388 52 101 164 0.468832 0.826337 -0.312032 
0.303153 0.0125439 7.29191 52 101 164 -0.073138 0.993551 -0.0866404 
0.440948 0.0123741 7.18755 52 101 164 -0.481018 -0.803827 -0.349976 
0.519033 0.0122528 7.1128 52 101 164 -0.939071 -0.139977 -0.31393 
0.617325 0.0121466 7.04475 52 101 164 -0.675366 -0.474264 -0.56476 
0.752439 0.0119903 6.94327 52 101 164 -0.765689 -0.0181311 -0.642955 
0.905192 0.0118101 6.82375 52 101 164 -0.764409 -0.482871 -0.427218 
1.10925 0.011593 6.67298 52 101 164 -0.742939 -0.149191 -0.652521 
1.44878 0.0112456 6.41707 52 101 164 -0.763123 -0.294734 -0.57513 
1.82081 0.0109103 6.14301 52 101 164 -0.778284 -0.346441 -0.52369 
1.99532 0.0107814 6.02357 52 101 164 -0.279559 -0.631004 -0.723658 
2.0816 0.0107377 5.97486 52 101 164 -0.313101 -0.582849 -0.749836 
2.34397 0.0110084 6.06714 52 101 164 0.318741 -0.719998 -0.616448 
-1.34837 0.019333 8.92984 52 101 164 -0.338014 -0.477663 -0.810916 
-1.19473 0.0192052 8.88523 52 101 164 -0.234232 -0.712128 -0.661823 
-0.939991 0.0189932 8.80745 52 101 164 -0.493064 -0.233557 -0.838057 
-0.485339 0.0186809 8.68744 52 101 164 -0.238142 -0.502403 -0.831192 
-0.121921 0.0184234 8.5762 52 101 164 -0.0830876 -0.674905 -0.733212 
-0.00416923 0.0183622 8.54819 52 101 164 -0.178789 -0.536366 -0.824831 
0.148969 0.0182545 8.49699 52 101 164 -0.348503 -0.552742 -0.756982 
0.698619 0.0150383 6.97556 52 101 164 -0.728898 -0.568377 -0.381648 
0.861414 0.0148036 6.8527 52 101 164 -0.207697 -0.832305 -0.513937 
1.00252 0.0146332 6.75911 52 101 164 -0.6868 -0.563143 -0.459538 
1.06739 0.0145294 6.7033 52 101 164 -0.70262 -0.443498 -0.556448 
1.19136 0.014361 6.60916 52 101 164 -0.82684 -0.22857 -0.513899 
1.69617 0.0137465 6.23782 52 101 164 -0.791288 -0.448235 -0.415871 
1.88436 0.0135461 6.10355 52 101 164 -0.580774 -0.431004 -0.690606 
2.38565 0.0137754 6.09302 52 101 164 0.691803 -0.308006 -0.653101 
-1.31905 0.023141 8.91571 52 101 164 -0.223062 -0.731582 -0.644229 
-1.25579 0.0231044 8.90744 52 101 164 -0.233805 -0.704552 -0.670031 
-1.11086 0.0229559 8.86223 52 101 164 -0.524218 -0.474292 -0.707278 
-0.772506 0.0226393 8.76274 52 101 164 -0.302183 -0.567592 -0.765849 
-0.703161 0.0225864 8.74599 52 101 164 -0.308493 -0.461957 -0.831522 
-0.560997 0.0224558 8.70197 52 101 164 -0.30697 -0.609118 -0.731263 
-0.413138 0.0223363 8.66099 52 101 164 -0.35583 -0.35583 -0.864159 
-0.315425 0.0222594 8.63377 52 101 164 -0.301261 -0.639575 -0.707238 
-0.0408769 0.022049 8.55571 52 101 164 -0.302152 -0.477494 -0.825047 
0.105373 0.0219314 8.50954 52 101 164 -0.168528 -0.611864 -0.772801 
0.342424 0.0187269 7.26095 52 101 164 -0.959028 0.0942248 -0.267185 
0.551476 0.0183265 7.09648 52 101 164 -0.828985 -0.41844 -0.371069 
0.648387 0.0181415 7.01894 52 101 164 -0.70539 -0.398124 -0.586448 
0.72711 0.0180026 6.95959 52 101 164 -0.707708 -0.379305 -0.596051 
0.77948 0.0179018 6.9165 52 101 164 -0.644658 -0.557132 -0.523469 
0.958403 0.0175918 6.78026 52 101 164 -0.657559 -0.463471 -0.593979 
1.66619 0.0164918 6.25202 52 101 164 -0.511041 -0.688649 -0.514392 
1.94956 0.0161325 6.05382 52 101 164 -0.382408 -0.759934 -0.525608 
2.11059 0.0159744 5.95468 52 101 164 -0.362331 -0.380992 -0.850624 
-1.40127 0.0270945 8.9443 52 101 164 -0.0616269 -0.632034 -0.772486 
-1.03594 0.0267051 8.84565 52 101 164 -0.490652 -0.261578 -0.831167 
-0.679167 0.0262872 8.72818 52 101 164 -0.250361 -0.60307 -0.757381 
-0.530528 0.0261633 8.69337 52 101 164 -0.362226 -0.60808 -0.706422 
-0.458396 0.0260921 8.67225 52 101 164 -0.25797 -0.7201 -0.644133 
-0.170123 0.0258394 8.59462 52 101 164 -0.161115 -0.582724 -0.796539 
0.0251112 0.0256388 8.52876 52 101 164 -0.0181997 -0.70699 -0.70699 
0.178076 0.0255379 8.49389 52 101 164 -0.282905 -0.501727 -0.817456 
0.233529 0.022156 7.36769 52 101 164 -0.811683 0.182893 -0.554726 
0.266956 0.022045 7.32997 52 101 164 -0.447597 0.837491 -0.313474 
0.457754 0.0215538 7.16016 52 101 164 -0.476152 -0.749651 -0.459676 
0.823536 0.020791 6.88394 52 101 164 -0.406811 -0.639275 -0.652558 
1.71831 0.0191396 6.21594 52 101 164 -0.819066 -0.292859 -0.493319 
1.78253 0.0190244 6.16524 52 101 164 -0.746697 -0.446699 -0.492853 
1.91484 0.018837 6.07602 52 101 164 -0.545328 -0.150077 -0.824678 
-1.16215 0.0306357 8.87215 52 101 164 -0.371521 -0.47767 -0.796117 
-1.00274 0.0304273 8.82316 52 101 164 -0.419449 -0.487998 -0.765454 
-0.815017 0.0302139 8.77269 52 101 164 -0.0968318 -0.556422 -0.825238 
-0.371496 0.0297107 8.64435 52 101 164 -0.252147 -0.421251 -0.871189 
-0.0923751 0.0294264 8.566 52 101 164 -0.254685 -0.659649 -0.707106 
1.01951 0.0233029 6.73501 52 101 164 -0.77592 -0.4636 -0.427813 
1.16476 0.0229711 6.62283 52 101 164 -0.822212 -0.411901 -0.392817 
1.24248 0.0227768 6.55686 52 101 164 -0.769152 -0.512226 -0.382137 
1.31031 0.0226808 6.52039 52 101 164 -0.602049 -0.602049 -0.524474 
1.36566 0.0225748 6.48207 52 101 164 -0.902743 -0.0442652 -0.427897 
1.51116 0.0222524 6.36669 52 101 164 -0.601083 -0.402378 -0.6905 
1.61862 0.0220346 6.28578 52 101 164 -0.67337 -0.49873 -0.545749 
2.01662 0.0213311 6.00407 52 101 164 -0.481357 -0.585344 -0.652432 
-1.23041 0.0345544 8.89193 52 101 164 -0.4167 -0.62256 -0.662404 
-1.08303 0.0343669 8.85463 52 101 164 -0.327214 -0.575445 -0.749529 
-0.744988 0.0338841 8.75019 52 101 164 -0.352195 -0.66016 -0.663436 
-0.603097 0.0337236 8.71509 52 101 164 -0.12628 -0.631399 -0.765107 
-0.266714 0.0333058 8.61681 52 101 164 -0.175785 -0.425662 -0.887644 
0.0579907 0.0329283 8.52122 52 101 164 -0.182828 -0.726703 -0.662176 
0.363234 0.0280006 7.24032 52 101 164 -0.75073 -0.0921949 -0.654145 
0.676143 0.027099 6.99247 52 101 164 -0.646536 -0.616465 -0.449401 
1.21382 0.0257254 6.58915 52 101 164 -0.769207 -0.297809 -0.565359 
1.40505 0.0252897 6.45186 52 101 164 -0.575702 -0.345421 -0.741115 
1.57664 0.0248833 6.32098 52 101 164 -0.789638 0.0977925 -0.60573 
1.8404 0.0243023 6.12427 52 101 164 -0.511478 -0.534956 -0.672468 
2.2693 0.0243437 6.05093 52 101 164 -0.0730144 -0.591274 -0.803159 
2.37124 0.0244737 6.06351 52 101 164 0.150026 -0.869569 -0.47047 
-1.37575 0.0386044 8.93063 52 101 164 -0.067191 -0.445654 -0.89268 
-1.29444 0.0384715 8.9066 52 101 164 -0.382754 -0.57331 -0.724441 
-0.916168 0.0378898 8.79803 52 101 164 -0.474177 -0.474177 -0.741831 
-0.861353 0.0378062 8.78173 52 101 164 -0.261148 -0.628338 -0.732798 
-0.652239 0.0374965 8.71997 52 101 164 -0.119697 -0.604398 -0.787639 
-0.341497 0.0370956 8.63678 52 101 164 -0.285378 -0.607425 -0.741346 
-0.225585 0.0369278 8.59984 52 101 164 -0.317963 -0.388621 -0.864797 
-0.147669 0.0368198 8.57562 52 101 164 -0.372492 -0.589096 -0.717088 
0.389616 0.030983 7.21011 52 101 164 -0.621069 -0.717859 -0.314567 
0.484245 0.0307049 7.14177 52 101 164 -0.858773 -0.169981 -0.483337 
0.567912 0.0304244 7.07258 52 101 164 -0.702907 -0.522589 -0.482518 
0.886458 0.0295119 6.83929 52 101 164 -0.564942 -0.53796 -0.625652 
1.08416 0.0289064 6.6802 52 101 164 -0.912653 0.0439672 -0.406364 
1.47603 0.0278529 6.38664 52 101 164 -0.465868 -0.696298 -0.546018 
1.97068 0.0267026 6.03316 52 101 164 -0.47931 -0.617217 -0.623944 
2.05254 0.0265425 5.97909 52 101 164 -0.228787 -0.517459 -0.824556 
2.30398 0.027028 6.04478 52 101 164 0.0466428 -0.614837 -0.787274 
-0.97492 0.0417624 8.81322 52 101 164 -0.252147 -0.421251 -0.871189 
-0.195727 0.0405472 8.58526 52 101 164 -0.650548 -0.23357 -0.722657 
-0.0665566 0.0403944 8.55393 52 101 164 0.0500186 -0.687399 -0.724556 
0.127117 0.0401355 8.49854 52 101 164 -0.157254 -0.564617 -0.810234 
0.203871 0.0401725 8.50544 52 101 164 0.558581 0.75287 -0.348101 
0.514434 0.0337416 7.13394 52 101 164 -0.582306 -0.710974 -0.394253 
1.04258 0.0319275 6.71321 52 101 164 -0.708393 -0.525045 -0.471707 
1.12611 0.0316765 6.65172 52 101 164 -0.840262 -0.372228 -0.394216 
1.53176 0.0304743 6.34599 52 101 164 -0.699006 -0.518833 -0.492141 
1.7402 0.0299127 6.1937 52 101 164 -0.492141 -0.518833 -0.699006 
2.1437 0.0290039 5.92327 52 101 164 -0.632532 -0.697574 -0.336592 
-1.339 0.0462349 8.91916 52 101 164 -0.546495 -0.522954 -0.654112 
-1.13714 0.0458365 8.85726 52 101 164 -0.483993 -0.56103 -0.671562 
-1.06117 0.0456814 8.83236 52 101 164 -0.158729 -0.633405 -0.757365 
-0.720966 0.0450727 8.73332 52 101 164 -0.247936 -0.642737 -0.724856 
-0.582875 0.0448363 8.69316 52 101 164 -0.168528 -0.611864 -0.772801 
-0.510917 0.0447439 8.67774 52 101 164 -0.0580448 -0.581864 -0.811212 
-0.438805 0.044607 8.65336 52 101 164 -0.177841 -0.588244 -0.788886 
-0.397571 0.0445639 8.64609 52 101 164 -0.362226 -0.60808 -0.706422 
-0.296224 0.0443888 8.61434 52 101 164 -0.401148 -0.572833 -0.714803 
-0.0298034 0.043981 8.53783 52 101 164 -0.0258264 -0.504294 -0.863145 
-0.000500752 0.0439269 8.52735 52 101 164 -0.432826 -0.501947 -0.748806 
0.0834348 0.0438195 8.50618 52 101 164 -0.222621 -0.624272 -0.748815 
0.321065 0.0374817 7.27181 52 101 164 -0.921193 0.113948 -0.372047 
0.422572 0.037079 7.19048 52 101 164 -0.689111 -0.592802 -0.416788 
0.599413 0.0363871 7.0485 52 101 164 -0.656045 -0.488258 -0.575507 
0.802092 0.0357098 6.90478 52 101 164 -0.794503 0.0379674 -0.606072 
0.917688 0.0352483 6.80639 52 101 164 -0.379305 -0.707708 -0.596051 
0.978773 0.0350245 6.75777 52 101 164 -0.782087 -0.443887 -0.437383 
1.26785 0.0340488 6.53873 52 101 164 -0.391525 -0.69219 -0.606285 
1.32826 0.0338633 6.49544 52 101 164 -0.741037 -0.327735 -0.586049 
2.08465 0.0317068 5.9518 52 101 164 -0.754798 -0.505928 -0.417513 
2.33395 0.0324359 6.04854 52 101 164 0.318631 -0.502517 -0.803711 
-1.26917 0.049902 8.89246 52 101 164 -0.348484 -0.404741 -0.845425 
-1.20817 0.0497537 8.87048 52 101 164 -0.415224 -0.560801 -0.716304 
-1.10857 0.0495657 8.84389 52 101 164 -0.348529 -0.652879 -0.672515 
-1.02966 0.0494287 8.82457 52 101 164 -0.387742 -0.548075 -0.741128 
-0.950306 0.0492482 8.7971 52 101 164 -0.116094 -0.583408 -0.803839 
-0.891123 0.0491117 8.776 52 101 164 -0.16618 -0.669292 -0.724177 
-0.794545 0.0489694 8.75561 52 101 164 -0.412798 -0.585212 -0.697944 
-0.480584 0.0484156 8.66897 52 101 164 -0.298978 -0.52677 -0.795692 
-0.121702 0.0477741 8.56077 52 101 164 -0.29409 -0.551618 -0.780531 
0.156069 0.0473623 8.48641 52 101 164 -0.233543 -0.409073 -0.882109 
0.281459 0.0407431 7.29785 52 101 164 -0.757831 0.622559 -0.195222 
0.527433 0.0396965 7.10206 52 101 164 -0.788076 -0.396466 -0.470904 
0.625 0.0393121 7.02845 52 101 164 -0.769152 -0.512226 -0.382137 
0.753616 0.038785 6.92642 52 101 164 -0.922982 0.137406 -0.359477 
0.838825 0.0384607 6.86244 52 101 164 -0.47995 -0.680626 -0.553531 
1.4258 0.0363772 6.42915 52 101 164 -0.657559 -0.463471 -0.593979 
1.64225 0.0356527 6.26805 52 101 164 -0.781781 -0.30093 -0.546132 
-1.40577 0.0539866 8.92325 52 101 164 -0.393653 -0.588009 -0.706599 
-0.840737 0.0528 8.76442 52 101 164 -0.0911876 -0.46155 -0.882415 
-0.624997 0.0523934 8.70656 52 101 164 -0.244266 -0.635092 -0.732798 
-0.552606 0.052264 8.68769 52 101 164 -0.0407077 -0.801521 -0.596579 
0.0250586 0.0511448 8.51079 52 101 164 -0.28723 -0.691598 -0.662715 
0.235899 0.0441405 7.34294 52 101 164 0.0935489 -0.962401 -0.255017 
0.649581 0.0421651 6.99908 52 101 164 -0.792428 -0.326856 -0.514998 
0.709713 0.0419868 6.96599 52 101 164 -0.417618 -0.660535 -0.623931 
1.44285 0.0390276 6.40333 52 101 164 -0.825125 -0.416522 -0.38168 
1.5942 0.0385388 6.30076 52 101 164 -0.431663 -0.719439 -0.544127 
1.80063 0.0378341 6.15042 52 101 164 -0.453179 -0.712138 -0.536179 
1.85835 0.0375962 6.10057 52 101 164 -0.621608 -0.591285 -0.513795 
1.88721 0.037537 6.08567 52 101 164 -0.699092 -0.545592 -0.462168 
-1.31658 0.0576342 8.89895 52 101 164 -0.254463 -0.446454 -0.857862 
-1.17638 0.0573365 8.86319 52 101 164 -0.456351 -0.479416 -0.749602 
-0.766958 0.0564038 8.74249 52 101 164 -0.148119 -0.596966 -0.788474 
-0.693672 0.0562465 8.72135 52 101 164 -0.298145 -0.559619 -0.773263 
-0.363304 0.0555637 8.62608 52 101 164 -0.361581 -0.460339 -0.81077 
-0.325958 0.0555074 8.61814 52 101 164 0.00138094 -0.716707 -0.697373 
-0.255098 0.0553776 8.59924 52 101 164 -0.240579 -0.627393 -0.740607 
-0.173323 0.0551853 8.57043 52 101 164 -0.382754 -0.57331 -0.724441 
0.25397 0.047137 7.31853 52 101 164 0.353682 -0.801787 -0.481712 
0.941272 0.0439183 6.78432 52 101 164 -0.67028 -0.297367 -0.679925 
1.37828 0.0421215 6.46038 52 101 164 -0.702907 -0.522589 -0.482518 
1.67876 0.0409483 6.23582 52 101 164 -0.373788 -0.41164 -0.831165 
1.76252 0.0406342 6.17351 52 101 164 -0.667308 -0.549647 -0.502582 
1.92912 0.0400864 6.05951 52 101 164 -0.591414 -0.460734 -0.661781 
1.99249 0.0398754 6.01493 52 101 164 -0.55885 -0.280217 -0.78049 
2.1182 0.0395305 5.93702 52 101 164 -0.246562 -0.595204 -0.764813 
-1.24309 0.0612485 8.87199 52 101 164 -0.441234 -0.564446 -0.697649 
-1.00489 0.0607015 8.80838 52 101 164 -0.314662 -0.624484 -0.714848 
-0.0922257 0.0587323 8.55207 52 101 164 -0.228525 -0.592299 -0.772631 
0.10506 0.0582674 8.48411 52 101 164 -0.14635 -0.734766 -0.662345 
0.442755 0.0492711 7.16664 52 101 164 -0.777725 -0.391298 -0.491964 
1.06348 0.0463158 6.69706 52 101 164 -0.0860432 -0.692721 -0.716055 
1.17643 0.0457712 6.60668 52 101 164 -0.410302 -0.723384 -0.555309 
1.55297 0.0441763 6.3283 52 101 164 -0.802405 -0.24367 -0.544766 
-1.37682 0.0654409 8.91222 52 101 164 -0.261148 -0.628338 -0.732798 
-0.929497 0.0642544 8.78014 52 101 164 -0.166474 -0.429937 -0.887378 
-0.666398 0.0636399 8.70861 52 101 164 -0.264866 -0.635996 -0.724814 
-0.228819 0.0626339 8.58262 52 101 164 -0.101741 -0.691543 -0.715135 
-0.0554259 0.0622773 8.53517 52 101 164 -0.383255 -0.603668 -0.699071 
0.0542102 0.0620326 8.50154 52 101 164 0.0153513 -0.671273 -0.741051 
0.202028 0.0538042 7.37228 52 101 164 0.580329 -0.784605 -0.218204 
0.338947 0.052957 7.25322 52 101 164 -0.398951 -0.793055 -0.460328 
0.550737 0.0517984 7.08688 52 101 164 -0.889823 -0.294614 -0.348452 
0.728175 0.0508016 6.94096 52 101 164 -0.918515 -0.0221486 -0.394766 
0.775733 0.0505951 6.90971 52 101 164 -0.632924 -0.445886 -0.632924 
0.813607 0.0503647 6.8756 52 101 164 -0.901308 -0.155693 -0.404232 
0.863534 0.0501728 6.84583 52 101 164 -0.836742 -0.297612 -0.459663 
1.00301 0.0494989 6.74245 52 101 164 -0.837476 -0.210505 -0.504303 
1.09562 0.048966 6.66099 52 101 164 -0.662467 -0.272968 -0.697586 
1.14313 0.048788 6.63203 52 101 164 -0.645738 -0.478014 -0.595421 
1.22169 0.0483882 6.5691 52 101 164 -0.73781 -0.493524 -0.460512 
1.29099 0.048118 6.52447 52 101 164 -0.729906 -0.367402 -0.576414 
1.49204 0.0471727 6.36985 52 101 164 -0.582688 -0.552287 -0.5962 
1.70506 0.0462961 6.21877 52 101 164 -0.733032 -0.391934 -0.555924 
2.02958 0.0450005 5.98487 52 101 164 -0.73781 -0.493524 -0.460512 
2.36061 0.045852 6.04357 52 101 164 0.12993 -0.754189 -0.643674 
-1.15477 0.0686397 8.84499 52 101 164 -0.261578 -0.490652 -0.831167 
-1.08801 0.0685098 8.83262 52 101 164 -0.347666 -0.495063 -0.796267 
-1.05503 0.0683423 8.81299 52 101 164 -0.372641 -0.694392 -0.615596 
-0.97682 0.0681737 8.79591 52 101 164 -0.445573 -0.422889 -0.789069 
-0.867418 0.0678982 8.76626 52 101 164 -0.0684365 -0.387807 -0.919196 
-0.743023 0.0675485 8.72699 52 101 164 -0.156051 -0.698444 -0.698444 
-0.604696 0.0671737 8.68408 52 101 164 -0.336687 -0.502637 -0.79624 
-0.464447 0.0668444 8.646 52 101 164 -0.493167 -0.383215 -0.780982 
-0.423141 0.0667675 8.63716 52 101 164 -0.0746545 -0.508496 -0.857822 
-0.1473 0.0660893 8.55408 52 101 164 -0.38683 -0.581068 -0.716047 
0.134048 0.0654838 8.47556 52 101 164 0.219384 -0.614586 -0.75773 
0.374624 0.0558203 7.2198 52 101 164 -0.900661 -0.226996 -0.370516 
0.465911 0.0552536 7.14338 52 101 164 -0.910058 -0.157102 -0.383555 
0.495052 0.0550832 7.1202 52 101 164 -0.896049 -0.346235 -0.277879 
0.683925 0.0540642 6.97931 52 101 164 -0.877141 0.28935 -0.383276 
0.886937 0.0529359 6.82005 52 101 164 -0.649121 -0.531099 -0.544587 
1.34777 0.0506415 6.47871 52 101 164 -0.493041 -0.203549 -0.84586 
1.61297 0.049338 6.2747 52 101 164 -0.646203 -0.287023 -0.707135 
1.82125 0.0484379 6.12554 52 101 164 -0.478901 -0.320848 -0.817135 
1.94998 0.0479327 6.0378 52 101 164 -0.394888 0.276875 -0.876016 
2.26229 0.0483083 6.03216 52 101 164 0.175925 -0.702171 -0.689932 
2.32006 0.048354 6.02724 52 101 164 0.257411 -0.620629 -0.740648 
2.39741 0.048743 6.06427 52 101 164 0.137406 -0.922982 -0.359477 
-1.34728 0.0729861 8.89674 52 101 164 -0.47995 -0.680626 -0.553531 
-1.29117 0.0728472 8.88402 52 101 164 -0.123633 -0.713497 -0.689664 
-0.823783 0.0714769 8.74502 52 101 164 -0.138245 -0.496225 -0.857117 
-0.536492 0.0707597 8.66877 52 101 164 -0.131871 -0.591198 -0.795673 
-0.506108 0.0706739 8.6592 52 101 164 -0.371694 -0.371694 -0.850698 
-0.393009 0.0703897 8.6274 52 101 164 -0.407689 -0.47266 -0.781269 
-0.29569 0.0701395 8.59872 52 101 164 -0.253076 -0.470875 -0.845121 
-0.0297356 0.0694638 8.51835 52 101 164 -0.168268 -0.601823 -0.780702 
0.170938 0.0693338 8.50133 52 101 164 0.919789 0.182824 -0.347224 
0.397982 0.0587084 7.19312 52 101 164 -0.447597 -0.837491 -0.313474 
0.569969 0.0576786 7.0602 52 101 164 -0.777725 -0.391298 -0.491964 
1.24653 0.05392 6.54772 52 101 164 -0.828057 -0.165611 -0.535626 
1.39596 0.0531518 6.43623 52 101 164 -0.77615 -0.440957 -0.45072 
-1.21826 0.0764233 8.85965 52 101 164 -0.0921247 -0.735535 -0.671194 
-1.12657 0.0761544 8.83458 52 101 164 -0.240579 -0.627393 -0.740607 
-0.792284 0.0751 8.7306 52 101 164 -0.261311 -0.726919 -0.635064 
-0.642795 0.0747283 8.69368 52 101 164 -0.485139 -0.378763 -0.788149 
-0.574371 0.0745689 8.6776 52 101 164 -0.159628 -0.716044 -0.679558 
-0.202755 0.0735777 8.57072 52 101 164 -0.441234 -0.564446 -0.697649 
-0.117806 0.0733458 8.54449 52 101 164 -0.313101 -0.582849 -0.749836 
0.00315232 0.0730704 8.51273 52 101 164 -0.18933 -0.681894 -0.706523 
1.02548 0.0580167 6.71627 52 101 164 -0.705621 0.196092 -0.680916 
1.19934 0.0570656 6.58905 52 101 164 -0.34273 -0.726068 -0.596123 
1.5144 0.0552876 6.34442 52 101 164 -0.676706 -0.583137 -0.449467 
1.65361 0.0546195 6.24695 52 101 164 -0.674468 -0.359388 -0.644929 
2.05296 0.0527694 5.96412 52 101 164 -0.623338 -0.623338 -0.472124 
2.15939 0.052502 5.91305 52 101 164 -0.28016 -0.677187 -0.680389 
-0.90181 0.0792499 8.76919 52 101 164 -0.293709 -0.624332 -0.72384 
-0.719162 0.07865 8.71134 52 101 164 -0.228525 -0.592299 -0.772631 
-0.347808 0.0776238 8.60924 52 101 164 -0.297367 -0.67028 -0.679925 
0.0759132 0.0764406 8.48117 52 101 164 -0.303667 -0.599301 -0.740692 
0.213697 0.0661541 7.33824 52 101 164 -0.239814 0.95793 -0.157668 
0.29334 0.0656561 7.28141 52 101 164 -0.931068 0.185655 -0.314078 
0.589018 0.0635114 7.03317 52 101 164 -0.832487 -0.471483 -0.290981 
0.629248 0.063303 7.0081 52 101 164 -0.817025 -0.409309 -0.406124 
0.959554 0.0613264 6.76741 52 101 164 -0.451981 -0.578736 -0.678806 
1.30861 0.0591977 6.49754 52 101 164 -0.59268 -0.59268 -0.5454 
1.46207 0.0583742 6.38768 52 101 164 -0.610318 -0.135792 -0.780431 
1.56962 0.0577509 6.30406 52 101 164 -0.453179 -0.712138 -0.536179 
1.72757 0.0570086 6.19861 52 101 164 -0.711711 -0.501698 -0.491697 
1.9037 0.0560842 6.06704 52 101 164 -0.66016 -0.352195 -0.663436 
2.29101 0.0563108 6.02554 52 101 164 -0.142463 -0.637335 -0.757304 
-1.40886 0.0847453 8.91805 52 101 164 -0.490296 -0.543844 -0.68106 
-1.26588 0.0841826 8.8693 52 101 164 0.114123 -0.512833 -0.850869 
-1.19001 0.083949 8.84992 52 101 164 -0.168528 -0.611864 -0.772801 
-1.03052 0.0833736 8.7992 52 101 164 -0.0434184 -0.575644 -0.816547 
-0.955486 0.0831009 8.77464 52 101 164 -0.447571 -0.547401 -0.707129 
-0.269371 0.0810618 8.58343 52 101 164 -0.412902 -0.615208 -0.671588 
0.787914 0.0652421 6.88533 52 101 164 -0.902743 0.0442652 -0.427897 
0.908177 0.0645293 6.80152 52 101 164 -0.337284 -0.630575 -0.69901 
1.11896 0.0632077 6.64376 52 101 164 -0.756671 -0.271259 -0.594867 
1.77983 0.0593908 6.15576 52 101 164 -0.78261 -0.258779 -0.566176 
-1.32544 0.0881578 8.88024 52 101 164 -0.203243 -0.668685 -0.715229 
-1.00231 0.0870116 8.7857 52 101 164 -0.406108 -0.547506 -0.731652 
-0.850635 0.0865715 8.74931 52 101 164 -0.332784 -0.706151 -0.624984 
-0.688519 0.086048 8.70358 52 101 164 -0.201252 -0.519019 -0.830733 
-0.180311 0.0844321 8.55285 52 101 164 -0.318464 -0.632078 -0.70644 
-0.0883565 0.084226 8.53265 52 101 164 -0.289893 -0.616624 -0.731941 
0.028658 0.0838553 8.49522 52 101 164 -0.359388 -0.674468 -0.644929 
0.266046 0.0721322 7.30481 52 101 164 -0.615457 -0.788169 -0.00137073 
0.521025 0.0701676 7.09799 52 101 164 -0.883057 0.13024 -0.450831 
0.661041 0.0691889 6.99231 52 101 164 -0.812156 -0.384537 -0.438787 
0.750013 0.0685317 6.9207 52 101 164 -0.254171 -0.0255387 -0.966822 
0.832555 0.0679815 6.85969 52 101 164 -0.696298 -0.465868 -0.546018 
1.41686 0.0641331 6.4144 52 101 164 -0.825037 -0.342319 -0.44959 
1.84002 0.0616743 6.10433 52 101 164 -0.675541 -0.528028 -0.514618 
2.00273 0.0608773 5.9956 52 101 164 -0.525521 -0.00134404 -0.85078 
2.09105 0.0605482 5.94627 52 101 164 -0.62115 -0.486483 -0.614416 
-1.38236 0.0922127 8.89773 52 101 164 -0.476477 -0.433905 -0.764655 
-1.08559 0.0911242 8.8129 52 101 164 -0.269716 -0.425145 -0.864005 
-0.765299 0.0900257 8.72342 52 101 164 -0.186301 -0.672837 -0.715948 
-0.486694 0.0891121 8.64495 52 101 164 -0.499365 -0.39201 -0.772634 
-0.448398 0.0888765 8.62311 52 101 164 -0.369226 -0.687581 -0.625223 
-0.321419 0.0885633 8.59558 52 101 164 -0.121289 -0.542146 -0.831485 
-0.239556 0.088299 8.57125 52 101 164 -0.550839 -0.428431 -0.716256 
0.104948 0.087295 8.47489 52 101 164 -0.175785 -0.425662 -0.887644 
0.155842 0.0872897 8.47392 52 101 164 0.9076 0.112581 -0.404459 
0.24819 0.0755576 7.33332 52 101 164 0.00114739 -0.981019 -0.193909 
0.314235 0.0747989 7.25823 52 101 164 -0.961866 0.214479 -0.169741 
0.350336 0.0745262 7.23083 52 101 164 -0.999917 -0.000989037 -0.0128575 
0.418411 0.0739412 7.17202 52 101 164 -0.908926 -0.227594 -0.349364 
0.696762 0.0718503 6.95682 52 101 164 -0.735342 -0.517218 -0.4379 
1.07206 0.0692513 6.67746 52 101 164 -0.539095 -0.623593 -0.566135 
1.1567 0.0686357 6.60978 52 101 164 -0.860084 -0.192289 -0.472525 
1.26999 0.0679821 6.53478 52 101 164 -0.394801 -0.294195 -0.870391 
1.36175 0.0672146 6.44977 52 101 164 -0.6868 -0.563143 -0.459538 
1.86577 0.0642273 6.08828 52 101 164 -0.445573 -0.422889 -0.789069 
1.96534 0.063666 6.01667 52 101 164 -0.717088 -0.360994 -0.596212 
2.1258 0.0629653 5.91953 52 101 164 -0.388617 -0.772356 -0.502438 
2.38415 0.0646189 6.03789 52 101 164 0.434006 -0.683435 -0.586989 
-1.15651 0.0951393 8.82888 52 101 164 -0.453971 -0.64494 -0.614787 
-0.928261 0.0943428 8.76832 52 101 164 -0.139497 -0.393127 -0.908841 
-0.880911 0.0941167 8.74971 52 101 164 -0.247936 -0.642737 -0.724856 
-0.62289 0.0932157 8.67703 52 101 164 -0.470515 -0.424929 -0.773338 
-0.558113 0.0929766 8.65697 52 101 164 -0.372418 -0.452336 -0.810368 
-0.418631 0.0925435 8.6206 52 101 164 -0.264229 -0.596493 -0.757878 
-0.384691 0.0923892 8.60702 52 101 164 -0.0813156 -0.549237 -0.831701 
-0.0590109 0.091454 8.52398 52 101 164 -0.293709 -0.624332 -0.72384 
0.441954 0.0768313 7.15354 52 101 164 -0.562948 -0.620426 -0.546042 
0.47346 0.0764629 7.11808 52 101 164 -0.617217 -0.47931 -0.623944 
0.863875 0.0735399 6.82493 52 101 164 -0.769152 -0.512226 -0.382137 
0.98272 0.0727702 6.74428 52 101 164 -0.532073 -0.717719 -0.449196 
1.05001 0.072401 6.70431 52 101 164 -0.901308 -0.155693 -0.404232 
1.67781 0.0680127 6.22175 52 101 164 -0.445601 -0.491641 -0.74815 
1.74586 0.0676091 6.17387 52 101 164 -0.678413 -0.504203 -0.534355 
2.34346 0.0670509 6.02144 52 101 164 0.0892971 -0.718769 -0.689491 
-1.3567 0.0996955 8.88212 52 101 164 -0.113845 -0.652022 -0.749604 
-1.2928 0.0994901 8.86851 52 101 164 -0.443872 -0.466802 -0.764901 
-1.24417 0.0992677 8.85205 52 101 164 -0.222281 -0.390096 -0.893541 
-1.06056 0.098501 8.79535 52 101 164 -0.228525 -0.592299 -0.772631 
-0.829922 0.0976324 8.73005 52 101 164 -0.209643 -0.638246 -0.740738 
-0.664735 0.0970687 8.68671 52 101 164 -0.567909 -0.234943 -0.788848 
-0.595529 0.0967351 8.65934 52 101 164 0.00137073 -0.615457 -0.788169 
-0.527689 0.0965678 8.64658 52 101 164 -0.206126 -0.745462 -0.633875 
-0.154412 0.0953103 8.54127 52 101 164 -0.0434184 -0.575644 -0.816547 
-0.036977 0.094874 8.50275 52 101 164 -0.432826 -0.501947 -0.748806 
-0.00414203 0.0947656 8.49305 52 101 164 -0.240949 -0.725997 -0.644106 
0.130136 0.094376 8.45749 52 101 164 -0.37864 -0.565502 -0.732693 
0.540841 0.0790929 7.07712 52 101 164 -0.344821 -0.645519 -0.681472 
0.928928 0.0760336 6.78023 52 101 164 -0.475914 -0.388797 -0.788887 
1.53675 0.0717287 6.33129 52 101 164 -0.805151 -0.31162 -0.504603 
1.59429 0.0713532 6.28982 52 101 164 -0.786521 -0.157906 -0.597034 
1.6281 0.0710401 6.25687 52 101 164 -0.563884 -0.654779 -0.503288 
1.79781 0.0699228 6.13111 52 101 164 -0.721084 -0.562676 -0.404269 
1.92424 0.0691834 6.04403 52 101 164 -0.445601 -0.491641 -0.74815 
-1.2159 0.102948 8.84231 52 101 164 -0.067945 -0.704026 -0.706917 
-1.12858 0.102624 8.82013 52 101 164 -0.396089 -0.563728 -0.724793 
-0.741397 0.101081 8.70773 52 101 164 -0.316958 -0.527202 -0.788413 
-0.298706 0.0994363 8.57918 52 101 164 -0.199305 -0.659715 -0.724605 
-0.124902 0.0988221 8.52827 52 101 164 -0.47737 -0.554419 -0.681717 
0.050436 0.0982599 8.47999 52 101 164 -0.300697 -0.502212 -0.81078 
0.188972 0.0852587 7.35664 52 101 164 -0.676251 0.643503 -0.358593 
0.379717 0.0834745 7.19852 52 101 164 -0.592553 -0.652983 -0.471692 
0.72191 0.080629 6.93829 52 101 164 -0.819066 -0.292859 -0.493319 
1.21181 0.0767214 6.56235 52 101 164 -0.713331 -0.554445 -0.42866 
1.2853 0.0762049 6.51009 52 101 164 -0.848272 -0.0630946 -0.525788 
1.33092 0.0759171 6.48025 52 101 164 -0.815573 -0.163115 -0.555188 
1.44311 0.0751902 6.40433 52 101 164 -0.839219 -0.396864 -0.371766 
1.47715 0.0748057 6.36672 52 101 164 -0.567016 -0.567016 -0.597483 
1.70063 0.0732602 6.20248 52 101 164 -0.596051 -0.379305 -0.707708 
2.41142 0.0728447 6.04879 52 101 164 -0.0472405 -0.948641 -0.312809 
-1.18701 0.106557 8.8275 52 101 164 -0.31236 -0.661945 -0.681366 
-0.978384 0.105779 8.7756 52 101 164 -0.4078 -0.449708 -0.794646 
-0.79897 0.105016 8.72118 52 101 164 -0.205328 -0.619073 -0.758017 
-0.710229 0.10464 8.69377 52 101 164 -0.509115 -0.439915 -0.739782 
-0.358419 0.103353 8.59754 52 101 164 -0.382453 -0.515904 -0.766533 
-0.213431 0.102827 8.5562 52 101 164 -0.223469 -0.679785 -0.698537 
0.609333 0.0845547 7.02243 52 101 164 -0.751122 -0.42569 -0.504583 
0.772076 0.0832327 6.90359 52 101 164 -0.308834 -0.799801 -0.514723 
1.00508 0.0811893 6.71683 52 101 164 -0.635944 -0.575217 -0.51449 
1.09544 0.0805961 6.65975 52 101 164 -0.59268 -0.59268 -0.5454 
1.17906 0.0798389 6.58881 52 101 164 -0.635358 -0.547723 -0.544352 
2.02463 0.0739121 5.97829 52 101 164 -0.481264 -0.481264 -0.732646 
2.165 0.0731677 5.89054 52 101 164 -0.581068 -0.38683 -0.716047 
2.31064 0.0748652 6.01002 52 101 164 -0.0559165 -0.445968 -0.8933 
-1.40954 0.111434 8.89764 52 101 164 -0.602931 -0.471932 -0.643238 
-1.02503 0.109701 8.78461 52 101 164 -0.354369 -0.70384 -0.615656 
-0.907541 0.109205 8.75119 52 101 164 -0.308694 -0.65456 -0.690116 
-0.268866 0.106646 8.56722 52 101 164 -0.207607 -0.504623 -0.838007 
0.0794381 0.1054 8.46883 52 101 164 -0.391934 -0.555924 -0.733032 
0.274466 0.0906179 7.27839 52 101 164 -0.158567 -0.919129 -0.360635 
0.559914 0.087869 7.04839 52 101 164 -0.783835 -0.349265 -0.513436 
0.807025 0.0858149 6.87011 52 101 164 -0.806809 -0.356274 -0.471304 
1.12971 0.0830346 6.62134 52 101 164 -0.637312 -0.499424 -0.586865 
-1.32721 0.114788 8.86604 52 101 164 -0.401148 -0.572833 -0.714803 
-1.27093 0.114536 8.85054 52 101 164 -0.177191 -0.580035 -0.795087 
-0.949887 0.113084 8.75784 52 101 164 0.08651 -0.506296 -0.858009 
-0.860162 0.112676 8.73079 52 101 164 -0.534956 -0.511478 -0.672468 
-0.508057 0.111185 8.62885 52 101 164 -0.0557105 -0.769947 -0.635671 
-0.471102 0.111206 8.63151 52 101 164 -0.601083 -0.402378 -0.6905 
-0.0991519 0.109646 8.51645 52 101 164 -0.178873 -0.646693 -0.74148 
0.496979 0.0915775 7.10373 52 101 164 -0.751308 -0.50142 -0.429084 
0.640514 0.090308 6.99883 52 101 164 -0.571106 -0.694319 -0.437904 
0.667535 0.0898957 6.9654 52 101 164 -0.643958 -0.502724 -0.576704 
0.885682 0.0880698 6.81021 52 101 164 -0.702907 -0.522589 -0.482518 
0.953785 0.0873253 6.74728 52 101 164 -0.91095 -0.181618 -0.370386 
1.23699 0.0850199 6.54281 52 101 164 -0.718858 -0.479792 -0.503034 
1.38939 0.0839789 6.44531 52 101 164 -0.666212 -0.602763 -0.439132 
1.88507 0.080047 6.06957 52 101 164 -0.831854 -0.102716 -0.545407 
2.06467 0.0789051 5.94982 52 101 164 -0.441234 -0.564446 -0.697649 
2.37091 0.080352 6.01147 52 101 164 0.420726 -0.600325 -0.680147 
-1.10367 0.117591 8.80447 52 101 164 -0.363702 -0.575726 -0.732298 
-0.771196 0.116031 8.7049 52 101 164 -0.406108 -0.547506 -0.731652 
-0.644711 0.115483 8.66887 52 101 164 -0.0648426 -0.667159 -0.742088 
-0.575876 0.115119 8.64392 52 101 164 0.0294021 -0.614644 -0.788256 
-0.332031 0.11423 8.58349 52 101 164 -0.336565 -0.43049 -0.837498 
-0.187455 0.113673 8.54372 52 101 164 -0.394841 -0.532461 -0.748723 
-0.0661436 0.113088 8.50059 52 101 164 -0.272968 -0.662467 -0.697586 
0.0140502 0.112775 8.47711 52 101 164 -0.119214 -0.593128 -0.796233 
0.21377 0.0976785 7.34056 52 101 164 0.0713167 -0.967155 -0.243978 
0.319396 0.0962856 7.23372 52 101 164 -0.832992 -0.230792 -0.502852 
0.351965 0.095854 7.20045 52 101 164 -0.625631 -0.595277 -0.504214 
0.842444 0.0914035 6.8432 52 101 164 -0.901308 -0.155693 -0.404232 
1.04908 0.0894369 6.67961 52 101 164 -0.85439 -0.258304 -0.450885 
1.50017 0.0856109 6.34397 52 101 164 -0.610117 -0.475656 -0.633647 
1.55059 0.0852047 6.30685 52 101 164 -0.880247 -0.266331 -0.392725 
1.65056 0.0844349 6.23524 52 101 164 -0.825952 -0.143323 -0.545217 
1.82029 0.083146 6.11276 52 101 164 -0.749651 -0.476152 -0.459676 
2.28011 0.0828109 6.01161 52 101 164 -0.157902 -0.795523 -0.584988 
-1.38421 0.122748 8.88449 52 101 164 -0.265366 -0.691223 -0.672155 
-1.15458 0.121558 8.81399 52 101 164 -0.333459 -0.623 -0.707585 
-0.686736 0.119394 8.68084 52 101 164 -0.241316 -0.673476 -0.698711 
-0.545704 0.118727 8.63725 52 101 164 -0.216916 -0.71629 -0.663232 
-0.447876 0.118354 8.61291 52 101 164 -0.283711 -0.684433 -0.67161 
-0.417844 0.118225 8.60424 52 101 164 -0.0916066 -0.617981 -0.780838 
-0.242795 0.117511 8.55559 52 101 164 -0.237764 -0.666054 -0.706994 
0.108308 0.116089 8.45316 52 101 164 -0.583998 -0.456824 -0.671013 
0.225362 0.10038 7.30763 52 101 164 -0.923313 -0.35512 -0.146226 
0.396785 0.0985619 7.17125 52 101 164 -0.817025 -0.409309 -0.406124 
0.45628 0.0981143 7.13674 52 101 164 -0.625173 -0.188934 -0.757273 
0.737383 0.0952395 6.91442 52 101 164 -0.825125 -0.416522 -0.38168 
1.72211 0.0865245 6.17883 52 101 164 -0.617217 -0.47931 -0.623944 
1.76321 0.0862962 6.15612 52 101 164 -0.679085 -0.455505 -0.575638 
1.93968 0.0848596 6.02285 52 101 164 -0.746931 -0.526956 -0.405477 
1.97892 0.0846211 5.99883 52 101 164 -0.355815 -0.667358 -0.65424 
2.09542 0.0839193 5.92716 52 101 164 -0.300697 -0.502212 -0.81078 
-1.35791 0.126272 8.86455 52 101 164 -0.0811137 -0.539335 -0.838175 
-1.30208 0.126046 8.85266 52 101 164 0.0499721 -0.669626 -0.741015 
-1.24605 0.12578 8.83787 52 101 164 -0.514538 -0.44505 -0.732927 
-1.21296 0.125507 8.8208 52 101 164 -0.267554 -0.606351 -0.748835 
-1.07861 0.124904 8.78691 52 101 164 -0.29483 -0.518711 -0.802505 
-0.999754 0.124501 8.76304 52 101 164 -0.348866 -0.469934 -0.810835 
-0.824742 0.123692 8.71497 52 101 164 -0.0919369 -0.628965 -0.771978 
-0.614215 0.122789 8.65987 52 101 164 -0.186686 -0.566128 -0.8029 
-0.387678 0.121723 8.59109 52 101 164 -0.234192 -0.658568 -0.715152 
-0.150427 0.120707 8.52299 52 101 164 -0.606916 -0.427336 -0.670102 
-0.022352 0.12023 8.48987 52 101 164 -0.386261 -0.367495 -0.84602 
0.144869 0.119959 8.46997 52 101 164 0.918313 0.135169 -0.372063 
0.298809 0.102891 7.26205 52 101 164 -0.572833 -0.401148 -0.714803 
0.520145 0.100492 7.08581 52 101 164 -0.608767 -0.52445 -0.595277 
0.582982 0.0997864 7.03331 52 101 164 -0.675541 -0.528028 -0.514618 
0.906557 0.0965966 6.78919 52 101 164 -0.407232 -0.71719 -0.565509 
1.0258 0.0954499 6.69896 52 101 164 -0.42782 -0.286747 -0.857174 
1.25858 0.0932283 6.52026 52 101 164 -0.865162 -0.310846 -0.393534 
1.30839 0.0929618 6.49625 52 101 164 -0.53796 -0.564942 -0.625652 
1.34642 0.0924847 6.45824 52 101 164 -0.732495 -0.345946 -0.586321 
1.39739 0.0919754 6.41636 52 101 164 -0.66645 -0.518723 -0.53551 
1.84398 0.088229 6.08965 52 101 164 -0.233743 -0.316916 -0.9192 
2.13343 0.0862819 5.90224 52 101 164 -0.479387 -0.529497 -0.699872 
2.34051 0.0881177 5.99915 52 101 164 0.067945 -0.704026 -0.706917 
2.40058 0.0885751 6.02148 52 101 164 0.405556 -0.677031 -0.614128 
-0.890361 0.127719 8.73093 52 101 164 -0.345421 -0.575702 -0.741115 
-0.743543 0.127004 8.68875 52 101 164 -0.469991 -0.516492 -0.715782 
0.0539736 0.123498 8.464 52 101 164 -0.244658 -0.553207 -0.796307 
0.420339 0.104453 7.15213 52 101 164 -0.196866 -0.871833 -0.448498 
0.693355 0.101711 6.95261 52 101 164 -0.302812 -0.288183 -0.908436 
0.980406 0.0987148 6.72823 52 101 164 -0.623338 -0.623338 -0.472124 
1.1547 0.0970374 6.59817 52 101 164 -0.832164 -0.274289 -0.481942 
1.45222 0.0943481 6.38162 52 101 164 -0.701745 -0.41972 -0.575664 
1.60258 0.0929596 6.26688 52 101 164 -0.5577 -0.140535 -0.818059 
-1.12963 0.132691 8.79833 52 101 164 -0.0931355 -0.53732 -0.83822 
-1.0508 0.132301 8.77724 52 101 164 -0.261847 -0.674455 -0.690324 
-0.929197 0.131659 8.74122 52 101 164 -0.46603 -0.566251 -0.679835 
-0.305855 0.128801 8.57287 52 101 164 -0.308694 -0.65456 -0.690116 
-0.216606 0.128234 8.53643 52 101 164 -0.199343 -0.721653 -0.662932 
0.167382 0.110849 7.37908 52 101 164 0.133475 -0.676373 -0.724364 
0.766711 0.103707 6.88211 52 101 164 -0.744469 -0.473753 -0.470451 
0.860195 0.102849 6.81904 52 101 164 -0.518723 -0.66645 -0.53551 
1.57132 0.0959446 6.288 52 101 164 -0.595846 -0.538456 -0.595846 
1.90395 0.0931164 6.04994 52 101 164 -0.639275 -0.406811 -0.652558 
-1.4142 0.138019 8.8779 52 101 164 0.0831237 -0.683948 -0.72478 
-1.18523 0.136779 8.81406 52 101 164 -0.226266 -0.631984 -0.741215 
-0.975338 0.135564 8.74807 52 101 164 -0.422581 -0.422581 -0.801779 
-0.858014 0.134864 8.70884 52 101 164 -0.25797 -0.7201 -0.644133 
-0.800826 0.13469 8.70025 52 101 164 0.0708043 -0.721048 -0.689258 
-0.713027 0.134349 8.68201 52 101 164 -0.149394 -0.74999 -0.644357 
-0.492392 0.133186 8.61429 52 101 164 -0.233805 -0.704552 -0.670031 
-0.361287 0.132573 8.57776 52 101 164 -0.0479521 -0.480891 -0.875468 
-0.282998 0.132114 8.54952 52 101 164 -0.175743 -0.637258 -0.750345 
-0.124654 0.131492 8.51107 52 101 164 -0.32953 -0.495091 -0.803925 
0.0792516 0.130528 8.44873 52 101 164 -0.0982828 -0.664509 -0.740789 
0.542757 0.109275 7.06217 52 101 164 -0.600086 -0.630343 -0.492508 
0.929359 0.104977 6.76171 52 101 164 -0.886592 -0.108534 -0.449639 
1.07286 0.103645 6.66404 52 101 164 -0.832994 -0.321589 -0.450224 
1.10313 0.103249 6.63574 52 101 164 -0.679085 -0.455505 -0.575638 
1.18987 0.102335 6.56842 52 101 164 -0.683626 -0.323139 -0.654398 
1.42213 0.100112 6.39942 52 101 164 -0.691818 -0.461767 -0.555121 
1.52331 0.0991161 6.32233 52 101 164 -0.83621 -0.370074 -0.404719 
1.67295 0.0977558 6.21392 52 101 164 -0.765465 -0.340028 -0.5463 
1.78557 0.0968214 6.13677 52 101 164 -0.279559 -0.631004 -0.723658 
2.00284 0.094939 5.97918 52 101 164 -0.669006 -0.336945 -0.662495 
2.03394 0.094677 5.95674 52 101 164 -0.554247 -0.454383 -0.697386 
-1.32822 0.141256 8.84688 52 101 164 -0.359054 -0.43814 -0.824083 
-1.28067 0.141057 8.83779 52 101 164 -0.243178 -0.404302 -0.881706 
-0.666842 0.137785 8.66518 52 101 164 -0.492141 -0.518833 -0.699006 
-0.190578 0.135284 8.51927 52 101 164 -0.262432 -0.682323 -0.682323 
-0.0952913 0.134932 8.49786 52 101 164 -0.228525 -0.592299 -0.772631 
0.122518 0.133899 8.4324 52 101 164 -0.0679211 -0.686437 -0.72401 
0.249916 0.115813 7.2915 52 101 164 -0.741798 -0.467548 -0.480765 
0.376572 0.114365 7.19733 52 101 164 -0.881543 -0.198678 -0.428262 
0.608183 0.111511 7.00898 52 101 164 -0.630115 -0.542271 -0.555785 
0.712145 0.110352 6.93065 52 101 164 -0.522788 -0.670715 -0.52615 
0.816815 0.109204 6.85214 52 101 164 -0.763123 -0.294734 -0.57513 
1.31977 0.103788 6.46753 52 101 164 -0.602931 -0.471932 -0.643238 
1.62557 0.100887 6.24695 52 101 164 -0.61665 -0.58624 -0.52542 
