ply
format ascii 1.0
comment Created by CloudCompare v2.11.1 (Anoia)
comment Created 2022/8/5 下午4:49
obj_info Generated by CloudCompare!
element vertex 712
property float x
property float y
property float z
property uchar red
property uchar green
property uchar blue
property float nx
property float ny
property float nz
end_header
74.8583 131.05 572.342 238 238 236 -0.134448 -0.898677 -0.417496 
137.175 128.861 557.299 238 238 236 -0.28935 -0.877141 -0.383276 
168.128 127.95 549.47 238 238 236 -0.155693 -0.901308 -0.404232 
216.153 126.82 537.296 238 238 236 -0.0442652 -0.902743 -0.427897 
-153.065 143.538 619.796 238 238 236 0.968951 -0.242546 -0.0480166 
-148.197 143.052 618.164 238 238 236 -0.145615 -0.845746 -0.513331 
-133.436 142.095 615.422 238 238 236 -0.339831 -0.820337 -0.459958 
-113.477 140.783 611.427 238 238 236 -0.136231 -0.908676 -0.394649 
-92.8518 139.541 607.531 238 238 236 -0.0894802 -0.904438 -0.417115 
-78.3066 138.674 604.651 238 238 236 -0.0225531 -0.898144 -0.439122 
-45.7863 136.797 597.94 238 238 236 -0.20254 -0.896129 -0.39488 
-1.04431 134.545 588.858 238 238 236 -0.157797 -0.905558 -0.393783 
27.0702 133.192 582.618 238 238 236 -0.177585 -0.896588 -0.405702 
30.3435 133.112 582.192 238 238 236 -0.132199 -0.89412 -0.42787 
54.4268 131.991 576.437 238 238 236 0.0013315 -0.869469 -0.493986 
86.5174 130.813 569.406 238 238 236 -0.21691 -0.866143 -0.450274 
122.832 129.51 560.568 238 238 236 -0.174097 -0.876335 -0.44914 
133.092 129.193 558.103 238 238 236 -0.180768 -0.915228 -0.360113 
194.591 127.491 542.564 238 238 236 -0.110606 -0.89745 -0.427024 
199.639 127.465 541.684 238 238 236 -0.128698 -0.860399 -0.493103 
-150.125 142.831 615.748 238 238 236 0.925815 -0.330146 -0.184039 
-125.367 141.791 613.619 238 238 236 -0.111038 -0.892521 -0.437124 
-121.69 141.58 613.023 238 238 236 -0.201867 -0.901867 -0.38195 
-105.274 140.458 609.452 238 238 236 -0.212902 -0.850097 -0.481671 
-65.8282 138.194 602.04 238 238 236 -0.391298 -0.777725 -0.491964 
-54.5599 137.544 599.711 238 238 236 -0.174097 -0.876335 -0.44914 
-40.7794 136.834 597.1 238 238 236 -0.344751 -0.829607 -0.439203 
-26.6109 136.066 594.103 238 238 236 -0.226326 -0.814464 -0.534252 
-19.327 135.674 592.516 238 238 236 -0.177585 -0.896588 -0.405702 
-11.0539 135.232 590.676 238 238 236 -0.150329 -0.862566 -0.483095 
6.60937 134.413 587.112 238 238 236 -0.17624 -0.887025 -0.426762 
90.3008 130.778 567.862 238 238 236 -0.0402584 -0.837097 -0.545571 
98.2763 130.495 566.004 238 238 236 -0.134448 -0.898677 -0.417496 
105.546 130.3 564.54 238 238 236 -0.251212 -0.833778 -0.491636 
110.052 130.073 563.147 238 238 236 -0.0888407 -0.914376 -0.394999 
117.788 129.896 561.647 238 238 236 -0.150026 -0.869569 -0.47047 
142.544 129.102 555.54 238 238 236 -0.13024 -0.883057 -0.450831 
174.816 128.16 547.283 238 238 236 -0.150026 -0.869569 -0.47047 
178.319 128.056 546.336 238 238 236 -0.128021 -0.873134 -0.47037 
221.549 127.073 535.341 238 238 236 -0.150329 -0.862566 -0.483095 
228.329 126.957 533.694 238 238 236 -0.073809 -0.75401 -0.652703 
234.465 126.759 531.769 238 238 236 -0.198678 -0.881543 -0.428262 
-165.728 144.187 618.768 238 238 236 0.813892 -0.574766 -0.0849905 
-98.3813 140.394 608.494 238 238 236 -0.0665857 -0.906381 -0.41718 
-90.0176 139.789 606.429 238 238 236 -0.344751 -0.829607 -0.439203 
-15.9485 135.657 591.338 238 238 236 -0.190198 -0.84915 -0.492717 
81.3316 131.369 569.966 238 238 236 -0.264356 -0.874639 -0.406352 
93.8728 130.817 566.649 238 238 236 -0.0445402 -0.897552 -0.438653 
127.783 129.78 559.033 238 238 236 -0.146033 -0.839322 -0.523654 
205.613 127.598 539.139 238 238 236 -0.215049 -0.855684 -0.470701 
212.365 127.445 537.39 238 238 236 0.083534 -0.853745 -0.513946 
-145.362 143.484 616.686 238 238 236 -0.245565 -0.885524 -0.394393 
-130.603 142.467 613.682 238 238 236 -0.230667 -0.838651 -0.493414 
-118.975 141.762 611.643 238 238 236 -0.196866 -0.871833 -0.448498 
-110.794 141.235 610.026 238 238 236 -0.147955 -0.856969 -0.493673 
-72.4916 138.928 602.554 238 238 236 0.0226345 -0.893398 -0.448696 
-31.8172 136.769 594.747 238 238 236 -0.205409 -0.820113 -0.534062 
1.50957 134.969 587.279 238 238 236 -0.21691 -0.866143 -0.450274 
9.3963 134.659 585.888 238 238 236 -0.108534 -0.886592 -0.449639 
33.0429 133.531 580.557 238 238 236 -0.0665857 -0.906381 -0.41718 
57.057 132.442 574.92 238 238 236 0.0181311 -0.765689 -0.642955 
69.8398 131.998 572.313 238 238 236 -0.22261 -0.891912 -0.393621 
145.919 129.327 553.927 238 238 236 -0.0652867 -0.87373 -0.48201 
153.041 129.149 552.287 238 238 236 -0.170106 -0.853488 -0.492567 
185.23 128.281 544.144 238 238 236 -0.0670248 -0.895944 -0.439081 
-172.402 139.746 595.896 238 238 236 -0.576853 -0.780081 -0.24231 
-155.439 140.132 599.622 238 238 236 0.734082 -0.601786 -0.314607 
-141.524 143.438 615.658 238 238 236 -0.254598 -0.713191 -0.653099 
-102.628 140.917 608.083 238 238 236 -0.223031 -0.807525 -0.546041 
-95.7037 140.507 606.802 238 238 236 -0.192452 -0.854844 -0.481875 
-83.6029 139.771 604.402 238 238 236 -0.0472405 -0.948641 -0.312809 
-63.0789 138.7 600.869 238 238 236 -0.0208108 -0.794973 -0.606288 
-59.2912 138.408 599.775 238 238 236 -0.0630104 -0.855542 -0.513885 
-38.0825 137.25 595.518 238 238 236 -0.0646888 -0.884998 -0.46108 
-4.36568 135.468 588.31 238 238 236 -0.176713 -0.880643 -0.439591 
12.4289 134.677 584.807 238 238 236 -0.358807 -0.811701 -0.460868 
44.4538 133.185 577.563 238 238 236 -0.083534 -0.853745 -0.513946 
48.6596 133.006 576.619 238 238 236 0.0205817 -0.83836 -0.544728 
65.417 132.385 573.134 238 238 236 -0.200609 -0.89176 -0.405611 
76.8507 131.862 570.182 238 238 236 -0.128021 -0.873134 -0.47037 
139.496 129.736 555.363 238 238 236 -0.107069 -0.863691 -0.492518 
155.924 129.152 550.842 238 238 236 -0.178331 -0.891657 -0.416107 
163.299 129.011 549.285 238 238 236 -0.260172 -0.859633 -0.439706 
170.311 128.792 547.392 238 238 236 -0.0814443 -0.827302 -0.555821 
190.191 128.272 542.28 238 238 236 -0.132199 -0.89412 -0.42787 
201.678 128.037 539.507 238 238 236 -0.0425605 -0.869057 -0.492878 
218.141 127.637 535.113 238 238 236 0.00133921 -0.858436 -0.512919 
-151.864 141.25 603.743 238 238 236 0.964327 -0.192342 -0.181874 
-138.557 143.437 614.742 238 238 236 -0.0630946 -0.848272 -0.525788 
-87.4004 140.206 604.876 238 238 236 -0.243819 -0.881039 -0.405368 
-52.0562 138.177 597.912 238 238 236 -0.283182 -0.858731 -0.42707 
-8.71745 135.836 588.752 238 238 236 -0.155693 -0.901308 -0.404232 
18.7269 134.543 583.011 238 238 236 -0.087968 -0.883869 -0.459388 
35.7315 133.707 578.999 238 238 236 -0.22261 -0.891912 -0.393621 
51.5901 133.048 575.566 238 238 236 -0.220558 -0.794319 -0.566049 
83.8711 131.805 568.364 238 238 236 0.0448071 -0.886637 -0.460291 
100.781 131.2 564.45 238 238 236 -0.106723 -0.869433 -0.482386 
112.514 130.766 561.534 238 238 236 -0.256608 -0.843579 -0.471728 
120.145 130.496 559.63 238 238 236 -0.196623 -0.876671 -0.439075 
159.139 129.237 549.715 238 238 236 -0.219783 -0.871658 -0.438072 
196.699 128.339 540.511 238 238 236 -0.198678 -0.881543 -0.428262 
208.384 128.095 537.623 238 238 236 -0.174097 -0.876335 -0.44914 
223.878 127.716 533.433 238 238 236 -0.342319 -0.825037 -0.44959 
-164.857 138.802 590.298 238 238 236 0.452939 -0.430211 -0.780874 
-157.899 140.264 597.543 238 238 236 0.102964 -0.825166 -0.555428 
-127.885 142.945 612.411 238 238 236 -0.161963 -0.931634 -0.32531 
-116.281 142.22 610.285 238 238 236 -0.245565 -0.885524 -0.394393 
-108.138 141.704 608.708 238 238 236 -0.345946 -0.732495 -0.586321 
-80.8041 140.017 603.297 238 238 236 -0.108929 -0.881334 -0.459765 
-76.9468 139.702 602.155 238 238 236 -0.198678 -0.881543 -0.428262 
-68.5973 139.273 600.752 238 238 236 -0.176713 -0.880643 -0.439591 
-43.8156 137.885 595.792 238 238 236 -0.174097 -0.876335 -0.44914 
-29.1347 137.087 592.743 238 238 236 -0.123619 -0.842065 -0.525018 
-24.4677 136.921 592.121 238 238 236 -0.214998 -0.781106 -0.586216 
21.7351 134.598 582.073 238 238 236 -0.154598 -0.885687 -0.437787 
39.7082 133.784 578.091 238 238 236 -0.19447 -0.865466 -0.461681 
60.435 132.914 573.465 238 238 236 -0.0646888 -0.884998 -0.46108 
72.4329 132.469 570.878 238 238 236 -0.184652 -0.923262 -0.336885 
124.635 130.554 558.338 238 238 236 -0.063262 -0.842087 -0.535618 
130.383 130.414 557.129 238 238 236 -0.235697 -0.775772 -0.585341 
134.808 130.189 555.671 238 238 236 -0.126246 -0.854702 -0.503534 
148.574 129.817 552.469 238 238 236 -0.110606 -0.89745 -0.427024 
180.493 128.915 544.334 238 238 236 -0.108929 -0.881334 -0.459765 
230.558 127.794 531.573 238 238 236 -0.0403537 -0.83073 -0.555211 
-169.038 140.37 595.498 238 238 236 0.683626 0.323139 -0.654398 
-135.724 143.551 613.105 238 238 236 -0.201867 -0.901867 -0.38195 
-56.7818 138.802 598.115 238 238 236 -0.220847 -0.881905 -0.416497 
-49.0876 138.396 596.669 238 238 236 -0.104571 -0.858054 -0.5028 
-35.4098 137.702 594.107 238 238 236 -0.150329 -0.862566 -0.483095 
-21.5925 136.897 590.924 238 238 236 -0.177585 -0.896588 -0.405702 
-13.5863 136.441 589.061 238 238 236 -0.210166 -0.845199 -0.491395 
4.05069 135.648 585.69 238 238 236 -0.0892155 -0.909998 -0.404901 
14.9311 135.089 583.18 238 238 236 -0.0427543 -0.856465 -0.514431 
87.6632 132.032 566.873 238 238 236 -0.248793 -0.820552 -0.514584 
107.413 131.345 562.316 238 238 236 -0.22857 -0.82684 -0.513899 
115.26 131.021 560.193 238 238 236 -0.19447 -0.865466 -0.461681 
165.798 129.412 547.437 238 238 236 -0.156163 -0.895431 -0.416913 
-152.738 141.38 600.646 238 238 236 0.528033 -0.64275 -0.555026 
-124.538 143.031 610.7 238 238 236 -0.174097 -0.876335 -0.44914 
-113.583 142.387 608.861 238 238 236 -0.165611 -0.828057 -0.535626 
-100.198 141.553 606.298 238 238 236 -0.255725 -0.776588 -0.575774 
-92.472 141.085 604.825 238 238 236 -0.330166 -0.799098 -0.502427 
-23.8748 124.911 538.076 238 238 236 0.167621 0.250761 -0.953427 
-1.80413 136.062 586.359 238 238 236 0.0206869 -0.817824 -0.575097 
24.4594 134.781 580.574 238 238 236 0.00129396 -0.909655 -0.415362 
27.9724 134.683 580.076 238 238 236 -0.230667 -0.838651 -0.493414 
96.0478 131.888 564.519 238 238 236 -0.198114 -0.887846 -0.415307 
103.252 131.627 562.799 238 238 236 -0.270183 -0.888171 -0.371689 
172.5 129.401 545.402 238 238 236 -0.205409 -0.820113 -0.534062 
176.085 129.365 544.75 238 238 236 -0.0448071 -0.886637 -0.460291 
192.712 128.983 540.68 238 238 236 -0.0442652 -0.902743 -0.427897 
214.274 128.446 534.965 238 238 236 -0.110164 -0.902229 -0.41695 
-154.16 140.769 596.64 238 238 236 -0.891657 -0.178331 -0.416107 
-150.116 144.469 613.218 238 238 236 0.956819 -0.263814 -0.122063 
-147.526 144.841 615.112 238 238 236 -0.136231 -0.908676 -0.394649 
-121.464 143.146 610.287 238 238 236 -0.239542 -0.866268 -0.438407 
-65.8092 139.696 599.247 238 238 236 -0.0222918 -0.913963 -0.405186 
-41.1328 138.355 594.471 238 238 236 -0.169981 -0.858773 -0.483337 
-18.7348 137.17 589.879 238 238 236 -0.237604 -0.719106 -0.653017 
6.83569 135.874 584.4 238 238 236 -0.196866 -0.871833 -0.448498 
53.9531 133.697 573.831 238 238 236 -0.208284 -0.825534 -0.524511 
67.4383 133.186 570.956 238 238 236 0.00136066 -0.817758 -0.57556 
79.0945 132.696 568.136 238 238 236 -0.0442652 -0.902743 -0.427897 
91.4662 132.295 565.538 238 238 236 -0.134046 -0.904456 -0.404959 
142.909 130.5 552.842 238 238 236 -0.214843 -0.860874 -0.461236 
187.069 129.331 541.953 238 238 236 -0.0630946 -0.848272 -0.525788 
226.264 128.395 531.69 238 238 236 -0.201867 -0.901867 -0.38195 
-163.794 140.499 593.168 238 238 236 0.989776 0.0492027 -0.133877 
-165.269 145.726 615.784 238 238 236 0.94667 -0.286829 -0.146781 
-144.76 144.782 613.939 238 238 236 -0.102716 -0.831854 -0.545407 
-132.779 144.085 612.115 238 238 236 -0.0789498 -0.8139 -0.575616 
-105.678 142.325 606.869 238 238 236 -0.107069 -0.863691 -0.492518 
-74.4024 140.41 600.712 238 238 236 -0.13024 -0.883057 -0.450831 
-61.7616 139.659 598.131 238 238 236 -0.348982 -0.840374 -0.414709 
-20.8322 125.366 538.026 238 238 236 -0.240742 -0.266083 -0.933404 
30.9397 134.93 578.84 238 238 236 -0.200609 -0.89176 -0.405611 
46.2803 134.16 575.039 238 238 236 -0.15233 -0.874811 -0.459892 
62.7498 133.523 571.557 238 238 236 -0.297612 -0.836742 -0.459663 
150.866 130.454 550.614 238 238 236 -0.141086 -0.812361 -0.565831 
198.807 129.19 538.499 238 238 236 -0.0876507 -0.889028 -0.449384 
203.457 129.082 537.31 238 238 236 -0.165166 -0.834759 -0.525259 
210.405 128.914 535.479 238 238 236 -0.13024 -0.883057 -0.450831 
220.205 128.739 533.127 238 238 236 -0.107069 -0.863691 -0.492518 
233.084 128.427 529.604 238 238 236 -0.150329 -0.862566 -0.483095 
-141.471 144.725 612.833 238 238 236 -0.182824 -0.919789 -0.347224 
-118.966 143.25 608.586 238 238 236 -0.179476 -0.905993 -0.38336 
-110.636 142.824 607.451 238 238 236 -0.283182 -0.858731 -0.42707 
-85.7565 141.257 602.517 238 238 236 -0.087968 -0.883869 -0.459388 
-71.4239 140.479 600.022 238 238 236 -0.130388 -0.878325 -0.459939 
-33.2314 138.27 592.057 238 238 236 -0.0442652 -0.902743 -0.427897 
-6.64694 136.877 586.481 238 238 236 -0.0225531 -0.898144 -0.439122 
9.60662 136.063 582.957 238 238 236 -0.285597 -0.862899 -0.416941 
41.8189 134.55 575.776 238 238 236 -0.309395 -0.860457 -0.404831 
109.861 132.015 560.629 238 238 236 -0.0645388 -0.891185 -0.449025 
126.721 131.4 556.343 238 238 236 -0.121961 -0.815525 -0.565725 
137.166 131.093 553.899 238 238 236 -0.152159 -0.879622 -0.45068 
161.117 130.327 547.702 238 238 236 -0.220847 -0.881905 -0.416497 
168.243 130.021 545.434 238 238 236 -0.176713 -0.880643 -0.439591 
182.674 129.783 542.398 238 238 236 -0.176713 -0.880643 -0.439591 
-129.982 144.202 610.51 238 238 236 -0.0684089 -0.921509 -0.382285 
-97.4865 142.136 604.334 238 238 236 -0.134046 -0.904456 -0.404959 
-89.8825 141.806 603.448 238 238 236 -0.0221486 -0.918515 -0.394766 
-54.2519 139.624 596.025 238 238 236 -0.157797 -0.905558 -0.393783 
-46.8565 139.237 594.649 238 238 236 -0.126624 -0.848529 -0.513775 
-38.4394 138.742 592.804 238 238 236 -0.110606 -0.89745 -0.427024 
-17.9851 125.549 536.801 238 238 236 -0.376981 -0.460398 -0.803691 
-10.996 137.339 587.309 238 238 236 -0.182704 -0.735422 -0.652514 
37.3547 134.965 576.599 238 238 236 -0.181618 -0.91095 -0.370386 
56.8394 134.181 572.481 238 238 236 -0.182824 -0.919789 -0.347224 
70.0169 133.628 569.421 238 238 236 -0.176713 -0.880643 -0.439591 
74.1631 133.492 568.588 238 238 236 -0.218916 -0.877154 -0.427408 
81.8635 133.103 566.424 238 238 236 -0.0876507 -0.889028 -0.449384 
85.0171 133.005 565.788 238 238 236 -0.245565 -0.885524 -0.394393 
117.579 131.819 557.978 238 238 236 -0.159307 -0.914957 -0.370776 
121.649 131.716 557.138 238 238 236 -0.17624 -0.887025 -0.426762 
131.849 131.391 554.682 238 238 236 -0.196866 -0.871833 -0.448498 
145.579 131.001 551.455 238 238 236 -0.104729 -0.850745 -0.515038 
153.767 130.717 549.24 238 238 236 -0.177585 -0.896588 -0.405702 
206.171 129.303 535.694 238 238 236 -0.0910256 -0.919766 -0.381764 
-166.12 140.153 587.897 238 238 236 0.938947 -0.186683 -0.289013 
-138.553 145.029 612.057 238 238 236 -0.0894802 -0.904438 -0.417115 
-103.034 142.769 605.473 238 238 236 -0.157102 -0.910058 -0.383555 
-82.6809 141.47 601.314 238 238 236 -0.108534 -0.886592 -0.449639 
-79.7023 141.306 600.794 238 238 236 -0.180768 -0.915228 -0.360113 
-15.1483 125.477 535.512 238 238 236 -0.397545 -0.308519 -0.864161 
0.742126 137.028 584.904 238 238 236 -0.0630946 -0.848272 -0.525788 
12.3684 136.293 581.694 238 238 236 -0.0224952 -0.903778 -0.427409 
16.903 136.16 581.07 238 238 236 -0.172264 -0.864265 -0.472622 
33.6305 135.371 577.342 238 238 236 -0.114498 -0.938883 -0.324635 
49.1962 134.671 573.816 238 238 236 -0.226326 -0.814464 -0.534252 
98.4571 132.708 562.414 238 238 236 -0.180276 -0.901379 -0.393722 
112.769 132.169 558.857 238 238 236 -0.170106 -0.853488 -0.492567 
139.832 131.334 552.479 238 238 236 -0.198114 -0.887846 -0.415307 
156.711 130.781 548.074 238 238 236 -0.128021 -0.873134 -0.47037 
194.834 129.834 538.684 238 238 236 -0.31162 -0.805151 -0.504603 
216.545 129.282 532.872 238 238 236 -0.283182 -0.858731 -0.42707 
-126.967 144.356 609.093 238 238 236 -0.245565 -0.885524 -0.394393 
-116.056 143.75 607.46 238 238 236 -0.292859 -0.819066 -0.493319 
-58.9987 140.326 596.541 238 238 236 -0.220847 -0.881905 -0.416497 
-51.322 139.937 595.205 238 238 236 -0.0402178 -0.844574 -0.533926 
-30.5861 138.722 590.67 238 238 236 -0.270183 -0.888171 -0.371689 
19.9109 136.254 580.318 238 238 236 -0.15399 -0.890837 -0.427429 
88.2679 133.182 564.145 238 238 236 -0.154598 -0.885687 -0.437787 
105.116 132.659 560.563 238 238 236 -0.154598 -0.885687 -0.437787 
177.926 130.392 542.492 238 238 236 -0.138411 -0.799211 -0.584897 
189.06 130.08 539.537 238 238 236 -0.0662267 -0.912306 -0.404118 
222.532 129.378 531.241 238 238 236 -0.134448 -0.898677 -0.417496 
-172.803 142.326 594.165 238 238 236 0.326607 0.308711 -0.893323 
-157.489 142.03 594.724 238 238 236 0.76684 -0.598167 -0.232707 
-135.725 145.131 610.408 238 238 236 -0.245565 -0.885524 -0.394393 
-123.506 144.326 608.104 238 238 236 -0.0222918 -0.913963 -0.405186 
-108.169 143.437 605.607 238 238 236 0.0013508 -0.838844 -0.54437 
-94.6396 142.619 603.128 238 238 236 0.00128895 -0.913864 -0.406019 
-68.8504 141.076 598.127 238 238 236 -0.104571 -0.858054 -0.5028 
-44.4009 139.615 592.954 238 238 236 -0.152159 -0.879622 -0.45068 
-27.0431 129.4 549.965 238 238 236 -0.121157 -0.975504 -0.18361 
59.4442 134.615 570.936 238 238 236 -0.0679416 -0.925871 -0.371681 
93.3606 133.306 563.211 238 238 236 -0.150329 -0.862566 -0.483095 
163.646 130.991 545.947 238 238 236 -0.210166 -0.845199 -0.491395 
228.314 129.5 529.747 238 238 236 -0.0226345 -0.893398 -0.448696 
-169.517 143.144 596.94 238 238 236 0.89046 0.31877 -0.324756 
-151.793 143.857 602.073 238 238 236 0.991178 -0.0721899 -0.111149 
-76.879 141.72 599.287 238 238 236 -0.241383 -0.877075 -0.415299 
-64.5063 140.959 596.71 238 238 236 -0.0606135 -0.835902 -0.545521 
-36.007 139.341 590.924 238 238 236 -0.248793 -0.820552 -0.514584 
-5.3366 125.34 531.969 238 238 236 0.0632063 0.0353527 -0.997374 
6.8057 137.04 581.61 238 238 236 -0.42473 -0.898522 -0.110738 
22.3707 136.373 578.581 238 238 236 -0.113948 -0.921193 -0.372047 
25.3702 136.268 578.074 238 238 236 -0.100131 -0.81121 -0.576118 
28.3601 136.139 577.46 238 238 236 -0.0225531 -0.898144 -0.439122 
64.7903 134.599 569.505 238 238 236 -0.132199 -0.89412 -0.42787 
76.4007 134.056 566.519 238 238 236 -0.290117 -0.813897 -0.503393 
101.218 133.192 561.018 238 238 236 -0.0204299 -0.851247 -0.524368 
128.784 132.229 554.306 238 238 236 -0.187695 -0.836367 -0.515034 
134.209 132.046 552.943 238 238 236 -0.104571 -0.858054 -0.5028 
147.833 131.597 549.459 238 238 236 -0.115696 -0.929649 -0.349809 
173.257 130.813 542.821 238 238 236 -0.0873247 -0.894039 -0.439396 
184.834 130.638 540.438 238 238 236 -0.247539 -0.890846 -0.380944 
200.557 130.207 536.223 238 238 236 -0.157102 -0.910058 -0.383555 
-153.815 143.288 598.236 238 238 236 0.787511 -0.500851 -0.359131 
-147.943 146.349 612.019 238 238 236 -0.0454344 -0.935948 -0.349196 
-132.772 145.371 609.366 238 238 236 -0.0223557 -0.908692 -0.416868 
-113.588 144.118 605.746 238 238 236 -0.130388 -0.878325 -0.459939 
-100.616 143.402 603.723 238 238 236 -0.0837701 -0.847639 -0.523918 
-88.2116 142.554 600.988 238 238 236 -0.248793 -0.820552 -0.514584 
-41.4727 139.828 591.707 238 238 236 -0.202973 -0.91122 -0.358442 
-13.7917 138.498 586.649 238 238 236 0.205273 -0.15105 -0.966978 
43.6666 135.567 573.48 238 238 236 -0.0873247 -0.894039 -0.439396 
51.8086 135.315 572.091 238 238 236 -0.196623 -0.876671 -0.439075 
123.915 132.483 554.826 238 238 236 -0.249897 -0.907519 -0.33758 
211.846 130.153 533.149 238 238 236 -0.0668484 -0.901772 -0.427011 
-164.407 141.995 590.294 238 238 236 0.988978 -0.0237899 -0.146138 
-164.666 148.338 617.501 238 238 236 0.987926 0.0496852 -0.146745 
-144.973 146.34 611.112 238 238 236 -0.21691 -0.866143 -0.450274 
-105.511 143.86 604.146 238 238 236 -0.285223 -0.795787 -0.534202 
-92.0226 143.029 601.605 238 238 236 -0.226996 -0.900661 -0.370516 
-74.1115 141.949 598.141 238 238 236 -0.0670248 -0.895944 -0.439081 
-56.7385 140.914 594.617 238 238 236 -0.111038 -0.892521 -0.437124 
-25.4327 126.857 536.127 238 238 236 0.43496 -0.648273 -0.624942 
-2.32793 125.658 531.315 238 238 236 -0.237019 -0.0925262 -0.967089 
39.4691 135.976 574.274 238 238 236 -0.297612 -0.836742 -0.459663 
67.5994 134.755 567.852 238 238 236 -0.108929 -0.881334 -0.459765 
71.47 134.581 566.891 238 238 236 -0.0876507 -0.889028 -0.449384 
79.2372 134.328 565.337 238 238 236 -0.200609 -0.89176 -0.405611 
107.488 133.232 558.505 238 238 236 -0.108534 -0.886592 -0.449639 
114.856 132.972 556.728 238 238 236 -0.134046 -0.904456 -0.404959 
142.099 132.168 550.445 238 238 236 -0.0428729 -0.850543 -0.524156 
151.188 131.832 547.929 238 238 236 -0.190198 -0.84915 -0.492717 
158.881 131.581 545.895 238 238 236 -0.0856685 -0.872133 -0.48171 
169.831 131.259 543.077 238 238 236 -0.0876507 -0.889028 -0.449384 
180.387 131.041 540.681 238 238 236 -0.108929 -0.881334 -0.459765 
191.581 130.791 537.976 238 238 236 -0.15233 -0.874811 -0.459892 
197.042 130.587 536.273 238 238 236 -0.159307 -0.914957 -0.370776 
208.2 130.36 533.565 238 238 236 -0.0628259 -0.861414 -0.504004 
218.553 130.105 530.797 238 238 236 -0.181618 -0.91095 -0.370386 
224.903 130.045 529.49 238 238 236 -0.121961 -0.815525 -0.565725 
230.92 129.934 528.005 238 238 236 -0.132199 -0.89412 -0.42787 
-150.139 146.403 609.653 238 238 236 0.925815 -0.330146 -0.184039 
-141.77 146.356 610.332 238 238 236 -0.28935 -0.877141 -0.383276 
-120.798 145.024 606.662 238 238 236 -0.132718 -0.889069 -0.438113 
-49.5652 140.66 592.707 238 238 236 -0.198114 -0.887846 -0.415307 
-22.3898 127.023 535.878 238 238 236 -0.19447 -0.865466 -0.461681 
0.442568 125.587 530.015 238 238 236 -0.646693 -0.178873 -0.74148 
31.0328 136.496 575.635 238 238 236 -0.30429 -0.851084 -0.427859 
35.2514 136.346 574.886 238 238 236 -0.253931 -0.838741 -0.481699 
46.5826 135.833 572.332 238 238 236 -0.0630104 -0.855542 -0.513885 
54.4164 135.482 570.518 238 238 236 0.00128895 -0.913864 -0.406019 
95.8053 133.92 561.336 238 238 236 -0.0856685 -0.872133 -0.48171 
203.29 130.678 534.646 238 238 236 -0.13024 -0.883057 -0.450831 
-138.807 146.33 609.35 238 238 236 -0.132199 -0.89412 -0.42787 
-130.261 145.76 607.761 238 238 236 -0.324024 -0.786915 -0.525142 
-97.6089 143.654 601.569 238 238 236 -0.152159 -0.879622 -0.45068 
-85.3835 143.001 599.645 238 238 236 -0.210505 -0.837476 -0.504303 
-62.0039 141.629 595.153 238 238 236 -0.0688642 -0.947208 -0.313137 
-53.7634 141.101 593.286 238 238 236 -0.25857 -0.849149 -0.46053 
-33.33 139.923 588.998 238 238 236 -0.143323 -0.825952 -0.545217 
3.66177 125.594 529.036 238 238 236 0.306169 -0.0684682 -0.949512 
9.57109 137.825 580.521 238 238 236 -0.220619 -0.80071 -0.556948 
14.0889 137.577 579.433 238 238 236 0.42615 -0.575385 -0.698089 
61.4644 135.376 568.658 238 238 236 -0.128698 -0.860399 -0.493103 
82.5159 134.532 563.836 238 238 236 -0.132718 -0.889069 -0.438113 
85.6465 134.418 563.138 238 238 236 -0.123953 -0.83559 -0.535186 
90.4668 134.265 562.14 238 238 236 -0.134448 -0.898677 -0.417496 
110.262 133.522 557.356 238 238 236 -0.0837701 -0.847639 -0.523918 
118.58 133.251 555.427 238 238 236 -0.0926306 -0.933019 -0.3477 
136.535 132.677 551.12 238 238 236 -0.214843 -0.860874 -0.461236 
154.06 132.078 546.507 238 238 236 -0.0445402 -0.897552 -0.438653 
165.416 131.684 543.367 238 238 236 -0.0898364 -0.899746 -0.427068 
-155.017 143.746 595.444 238 238 236 0.671719 -0.671719 -0.31239 
-118.11 145.194 605.306 238 238 236 -0.0679416 -0.925871 -0.371681 
-110.905 144.794 604.219 238 238 236 -0.239542 -0.866268 -0.438407 
-82.3556 143.006 598.723 238 238 236 -0.0892155 -0.909998 -0.404901 
-79.3463 142.764 597.886 238 238 236 -0.25857 -0.849149 -0.46053 
-71.2921 142.312 596.437 238 238 236 -0.323209 -0.83847 -0.438753 
-67.2851 142.089 595.708 238 238 236 -0.192452 -0.854844 -0.481875 
-39.0482 140.473 590.046 238 238 236 -0.0222918 -0.913963 -0.405186 
-7.62398 126.09 530.12 238 238 236 0.87453 -0.0424263 -0.483113 
17.3306 137.562 578.238 238 238 236 -0.182893 -0.811683 -0.554726 
98.508 134.077 559.65 238 238 236 -0.13024 -0.883057 -0.450831 
126.232 133.073 552.841 238 238 236 -0.20254 -0.896129 -0.39488 
131.059 133.034 552.17 238 238 236 -0.192289 -0.860084 -0.472525 
144.705 132.613 548.857 238 238 236 -0.0654064 -0.866983 -0.494027 
175.483 131.698 541.011 238 238 236 -0.085382 -0.877615 -0.471701 
214.216 130.803 531.343 238 238 236 -0.218916 -0.877154 -0.427408 
-167.08 145.134 598.8 238 238 236 0.946331 0.164284 -0.278333 
-165.145 148.633 613.941 238 238 236 0.984289 -0.0971101 -0.147463 
-126.746 145.933 606.503 238 238 236 -0.326856 -0.792428 -0.514998 
-103.091 144.491 602.413 238 238 236 -0.332886 -0.804341 -0.492161 
-46.8683 141.083 591.248 238 238 236 -0.143323 -0.825952 -0.545217 
-19.5611 127.512 534.967 238 238 236 -0.205409 -0.820113 -0.534062 
-8.29803 129.65 544.066 238 238 236 0.747743 -0.644606 -0.159256 
49.1984 136.233 570.681 238 238 236 -0.135169 -0.918313 -0.372063 
57.0276 135.934 569.08 238 238 236 -0.298641 -0.830252 -0.470633 
103.044 134.165 558.585 238 238 236 -0.17189 -0.871205 -0.459843 
161.355 132.197 543.978 238 238 236 -0.178331 -0.891657 -0.416107 
186.288 131.579 537.911 238 238 236 -0.243819 -0.881039 -0.405368 
193.982 131.425 536.113 238 238 236 -0.237856 -0.855979 -0.459047 
-167.009 142.405 586.03 238 238 236 0.608602 -0.406287 -0.681568 
-135.986 146.692 607.672 238 238 236 -0.108929 -0.881334 -0.459765 
-108.232 144.933 602.734 238 238 236 -0.408982 -0.767452 -0.493711 
-94.7773 144.137 600.397 238 238 236 -0.241383 -0.877075 -0.415299 
-43.9642 141.107 590.342 238 238 236 -0.0910256 -0.919766 -0.381764 
-29.3806 131.075 548.699 238 238 236 -0.626162 -0.728133 -0.278825 
-16.7287 127.437 533.691 238 238 236 -0.308834 -0.799801 -0.514723 
-13.2542 127.502 534.006 238 238 236 0.522954 -0.546495 -0.654112 
73.7457 135.453 565.087 238 238 236 -0.0227399 -0.886856 -0.461486 
121.295 133.749 554.089 238 238 236 -0.159307 -0.914957 -0.370776 
139.178 133.145 549.637 238 238 236 -0.0873247 -0.894039 -0.439396 
182.539 131.886 538.711 238 238 236 -0.198678 -0.881543 -0.428262 
221.012 131.058 529.233 238 238 236 -0.243819 -0.881039 -0.405368 
227.041 130.819 527.206 238 238 236 -0.0439672 -0.912653 -0.406364 
-172.172 145.048 595.505 238 238 236 0.469934 0.348866 -0.810835 
-123.554 146.154 605.425 238 238 236 -0.264576 -0.803122 -0.533849 
-115.415 145.604 603.823 238 238 236 -0.165166 -0.834759 -0.525259 
-100.455 144.639 600.962 238 238 236 -0.152159 -0.879622 -0.45068 
-90.3707 144.069 599.286 238 238 236 -0.278995 -0.7222 -0.632921 
-76.5632 143.222 596.6 238 238 236 -0.132718 -0.889069 -0.438113 
-59.4898 142.236 593.351 238 238 236 -0.0422406 -0.881603 -0.470097 
-11.7084 126.092 527.131 238 238 236 0.635996 0.264866 -0.724814 
7.27574 138.378 578.519 238 238 236 0.853437 -0.377751 -0.359096 
26.2659 137.701 575.413 238 238 236 -0.550761 -0.782493 -0.290459 
41.3199 136.982 571.978 238 238 236 -0.0665857 -0.906381 -0.41718 
64.4895 135.95 566.639 238 238 236 -0.159307 -0.914957 -0.370776 
92.9452 134.92 560.461 238 238 236 -0.134046 -0.904456 -0.404959 
205.265 131.452 532.399 238 238 236 -0.196866 -0.871833 -0.448498 
-147.319 147.88 609.212 238 238 236 -0.110606 -0.89745 -0.427024 
-132.993 146.87 606.407 238 238 236 -0.19447 -0.865466 -0.461681 
-64.77 142.736 594.081 238 238 236 -0.245565 -0.885524 -0.394393 
-51.7668 141.878 591.073 238 238 236 -0.178331 -0.891657 -0.416107 
-36.1095 141.054 588.154 238 238 236 -0.316494 -0.823514 -0.470804 
69.0823 135.994 565.506 238 238 236 -0.0919609 -0.936934 -0.33719 
76.8336 135.736 563.956 238 238 236 -0.198678 -0.881543 -0.428262 
112.379 134.351 555.375 238 238 236 -0.0665857 -0.906381 -0.41718 
133.65 133.679 550.406 238 238 236 -0.215049 -0.855684 -0.470701 
146.987 133.235 547.01 238 238 236 -0.219783 -0.871658 -0.438072 
171.104 132.439 540.564 238 238 236 -0.274289 -0.832164 -0.481942 
177.958 132.353 539.255 238 238 236 -0.0630946 -0.848272 -0.525788 
189.074 132.065 536.431 238 238 236 -0.210166 -0.845199 -0.491395 
198.808 131.846 534.035 238 238 236 -0.13024 -0.883057 -0.450831 
210.05 131.546 530.997 238 238 236 -0.228883 -0.91697 -0.32677 
231.959 130.979 524.973 238 238 236 -0.493646 -0.823781 -0.278746 
-157.14 144.357 592.088 238 238 236 0.76869 -0.600976 -0.21896 
-152.076 145.766 598.615 238 238 236 0.934864 -0.259295 -0.242476 
-143.894 147.936 608.65 238 238 236 -0.0931368 -0.948421 -0.303023 
-87.5177 144.206 597.803 238 238 236 -0.198678 -0.881543 -0.428262 
-56.49 142.361 591.789 238 238 236 -0.398951 -0.793055 -0.460328 
11.296 138.821 578.177 238 238 236 -0.0500186 -0.687399 -0.724556 
32.4103 137.716 573.182 238 238 236 0.00134404 -0.85078 -0.525521 
36.6095 137.56 572.408 238 238 236 -0.156163 -0.895431 -0.416913 
44.2495 137.297 571.055 238 238 236 -0.190198 -0.84915 -0.492717 
51.8013 136.879 569.01 238 238 236 -0.0856685 -0.872133 -0.48171 
79.6416 135.73 562.692 238 238 236 -0.111736 -0.917337 -0.382109 
87.5472 135.408 560.799 238 238 236 -0.0424263 -0.87453 -0.483113 
105.459 134.789 556.779 238 238 236 -0.210166 -0.845199 -0.491395 
156.035 133.151 544.504 238 238 236 -0.196623 -0.876671 -0.439075 
167.621 132.776 541.416 238 238 236 -0.0402178 -0.844574 -0.533926 
223.495 131.409 527.19 238 238 236 -0.426347 -0.848044 -0.314722 
-166.737 147.09 601.37 238 238 236 0.972459 0.14327 -0.183842 
-140.869 147.84 607.402 238 238 236 -0.251602 -0.911874 -0.324319 
-120.782 146.488 603.645 238 238 236 -0.163122 -0.821596 -0.546234 
-105.534 145.544 600.969 238 238 236 -0.17189 -0.871205 -0.459843 
-73.9904 143.558 594.801 238 238 236 -0.0425605 -0.869057 -0.492878 
-27.8146 131.399 546.005 238 238 236 0.0556492 -0.763393 -0.643533 
13.4624 126.362 525.275 238 238 236 -0.158732 -0.00788031 -0.98729 
28.9624 138.178 574.126 238 238 236 -0.206163 -0.922759 -0.325596 
95.3612 135.255 558.517 238 238 236 -0.176713 -0.880643 -0.439591 
100.392 135.114 557.52 238 238 236 -0.087968 -0.883869 -0.459388 
115.088 134.586 554.006 238 238 236 -0.302648 -0.845862 -0.439228 
128.313 134.164 550.921 238 238 236 -0.167756 -0.84769 -0.503269 
141.452 133.743 547.707 238 238 236 -0.107069 -0.863691 -0.492518 
149.866 133.483 545.621 238 238 236 -0.147955 -0.856969 -0.493673 
201.581 132.104 532.619 238 238 236 -0.0202833 -0.869476 -0.493559 
215.791 131.739 528.817 238 238 236 -0.247539 -0.890846 -0.380944 
-162.644 148.964 608.597 238 238 236 0.987336 -0.146056 -0.0619276 
-150.853 148.204 606.725 238 238 236 0.912489 -0.352063 -0.208364 
-129.488 147.32 605.191 238 238 236 -0.28806 -0.807512 -0.51473 
-112.748 146.292 602.381 238 238 236 -0.19447 -0.865466 -0.461681 
-84.4758 144.44 596.738 238 238 236 -0.2096 -0.929837 -0.302443 
-69.9646 143.544 593.858 238 238 236 -0.112581 -0.9076 -0.404459 
-42.0136 141.881 588.137 238 238 236 -0.0906231 -0.923814 -0.37196 
-26.4744 128.589 533.354 238 238 236 0.500768 -0.608677 -0.615422 
-5.0874 127.679 529.852 238 238 236 0.177731 -0.791436 -0.584842 
59.0716 136.985 566.996 238 238 236 -0.270183 -0.888171 -0.371689 
82.9061 135.93 561.203 238 238 236 -0.237601 -0.861115 -0.449475 
108.179 135.014 555.385 238 238 236 -0.200609 -0.89176 -0.405611 
123.333 134.532 551.929 238 238 236 -0.110606 -0.89745 -0.427024 
163.293 133.258 541.94 238 238 236 -0.237601 -0.861115 -0.449475 
195.736 132.428 533.85 238 238 236 -0.102964 -0.825166 -0.555428 
-102.893 145.684 599.507 238 238 236 -0.302648 -0.845862 -0.439228 
-98.0604 145.521 599.192 238 238 236 -0.298641 -0.830252 -0.470633 
-93.1071 145.155 598.019 238 238 236 -0.492684 -0.703118 -0.512725 
-81.4876 144.486 596.003 238 238 236 -0.104571 -0.858054 -0.5028 
-62.2595 143.359 592.372 238 238 236 -0.201867 -0.901867 -0.38195 
-49.0641 142.536 589.517 238 238 236 -0.156163 -0.895431 -0.416913 
-33.7072 141.663 586.385 238 238 236 -0.0201989 -0.876634 -0.480734 
-23.2374 128.888 533.671 238 238 236 -0.0792482 -0.791041 -0.606609 
-8.96224 130.649 541.154 238 238 236 0.77615 -0.440957 -0.45072 
-1.62919 127.784 529.311 238 238 236 -0.207697 -0.832305 -0.513937 
10.4784 126.652 524.563 238 238 236 0.763393 -0.0556492 -0.643533 
46.8591 137.672 569.332 238 238 236 -0.13024 -0.883057 -0.450831 
54.6746 137.366 567.733 238 238 236 -0.253931 -0.838741 -0.481699 
71.3279 136.555 563.494 238 238 236 -0.278943 -0.849158 -0.448466 
90.3016 135.859 559.329 238 238 236 -0.19447 -0.865466 -0.461681 
117.818 134.854 552.781 238 238 236 -0.128021 -0.873134 -0.47037 
135.94 134.275 548.479 238 238 236 -0.312006 -0.87514 -0.369842 
152.749 133.743 544.279 238 238 236 0.104729 -0.850745 -0.515038 
158.556 133.56 542.786 238 238 236 -0.140766 -0.819409 -0.555657 
173.637 133.132 538.982 238 238 236 -0.112581 -0.9076 -0.404459 
180.065 132.919 537.186 238 238 236 -0.218916 -0.877154 -0.427408 
191.528 132.732 534.732 238 238 236 -0.15233 -0.874811 -0.459892 
212.644 132.184 529.14 238 238 236 -0.126624 -0.848529 -0.513775 
218.583 132.032 527.534 238 238 236 0.0227399 -0.886856 -0.461486 
229.03 131.885 525.183 238 238 236 -0.0926306 -0.933019 -0.3477 
-153.231 146.162 595.605 238 238 236 0.664472 -0.543353 -0.513073 
-138.126 148.279 606.075 238 238 236 -0.135781 -0.914072 -0.382146 
-125.984 147.484 603.926 238 238 236 -0.134046 -0.904456 -0.404959 
-117.859 146.941 602.389 238 238 236 -0.0919609 -0.936934 -0.33719 
-110.291 146.362 600.619 238 238 236 -0.111038 -0.892521 -0.437124 
-46.1556 142.533 588.52 238 238 236 -0.256608 -0.843579 -0.471728 
-39.1201 142.114 587.015 238 238 236 -0.157902 -0.795523 -0.584988 
-15.271 128.516 531.271 238 238 236 0.285931 -0.742782 -0.605407 
1.36025 127.699 527.982 238 238 236 -0.25857 -0.849149 -0.46053 
16.4146 126.907 524.574 238 238 236 -0.551618 -0.29409 -0.780531 
19.543 126.475 522.734 238 238 236 -0.177191 0.580035 -0.795087 
26.6148 138.412 571.966 238 238 236 0.834045 -0.347126 -0.428803 
130.944 134.604 549.357 238 238 236 -0.190312 -0.843667 -0.502004 
144.08 134.213 546.253 238 238 236 -0.246594 -0.808022 -0.535062 
183.452 133.01 536.053 238 238 236 -0.110606 -0.89745 -0.427024 
-78.7194 144.702 594.852 238 238 236 -0.267464 -0.808647 -0.523978 
-67.2117 143.974 592.475 238 238 236 -0.264764 -0.86994 -0.416058 
-12.7949 127.107 524.507 238 238 236 0.87373 -0.0652867 -0.48201 
-10.1439 128.207 529.072 238 238 236 0.782734 0.174785 -0.597309 
38.98 138.374 570.41 238 238 236 -0.261668 -0.734256 -0.626417 
61.6406 137.39 565.393 238 238 236 -0.353838 -0.795736 -0.491531 
66.2317 137.193 564.333 238 238 236 -0.25857 -0.849149 -0.46053 
74.4223 136.856 562.459 238 238 236 -0.241383 -0.877075 -0.415299 
186.436 133.16 535.217 238 238 236 -0.155693 -0.901308 -0.404232 
206.671 132.647 529.984 238 238 236 -0.147955 -0.856969 -0.493673 
-145.961 149.193 606.796 238 238 236 -0.155693 -0.901308 -0.404232 
-135.363 148.414 604.631 238 238 236 -0.134046 -0.904456 -0.404959 
-90.2729 145.585 596.662 238 238 236 -0.242061 -0.870517 -0.428493 
-59.7612 143.716 590.673 238 238 236 -0.0859456 -0.866501 -0.491722 
-54.4814 143.374 589.492 238 238 236 -0.192289 -0.860084 -0.472525 
-20.4108 129.33 532.596 238 238 236 -0.205409 -0.820113 -0.534062 
4.57292 128.089 527.633 238 238 236 0.64468 -0.584083 -0.493188 
6.08629 126.156 519.659 238 238 236 -0.395327 -0.892058 0.218973 
102.537 135.939 555.561 238 238 236 -0.0898364 -0.899746 -0.427068 
138.547 134.714 546.91 238 238 236 -0.147955 -0.856969 -0.493673 
225.487 132.47 525.161 238 238 236 -0.11354 -0.926106 -0.359772 
-168.399 148.044 598.316 238 238 236 0.783835 0.349265 -0.513436 
-154.973 146.363 592.871 238 238 236 0.677031 -0.614128 -0.405556 
-132.202 148.414 603.805 238 238 236 -0.25857 -0.849149 -0.46053 
-123.192 147.793 602.072 238 238 236 -0.064912 -0.879765 -0.470957 
-30.4582 132.959 546.333 238 238 236 -0.622625 -0.722374 -0.300855 
9.30921 130.36 535.968 238 238 236 0.728898 -0.568377 -0.381648 
41.9012 138.673 569.44 238 238 236 -0.352195 -0.66016 -0.663436 
49.1955 138.259 567.458 238 238 236 -0.0402178 -0.844574 -0.533926 
92.7291 136.448 557.422 238 238 236 -0.0977193 -0.783213 -0.614027 
97.5429 136.353 556.652 238 238 236 -0.209079 -0.760427 -0.614847 
110.277 135.815 553.332 238 238 236 -0.128021 -0.873134 -0.47037 
120.491 135.553 551.279 238 238 236 -0.256608 -0.843579 -0.471728 
125.636 135.349 549.914 238 238 236 -0.25857 -0.849149 -0.46053 
165.4 134.024 539.71 238 238 236 -0.0228164 -0.881789 -0.471093 
176.104 133.778 537.227 238 238 236 -0.242061 -0.870517 -0.428493 
198.877 133.166 531.323 238 238 236 -0.0668484 -0.901772 -0.427011 
203.583 133.128 530.44 238 238 236 -0.0665857 -0.906381 -0.41718 
220.886 132.652 525.663 238 238 236 -0.136757 -0.926906 -0.349489 
-172.727 147.936 596.202 238 238 236 0.0957343 0.0957343 -0.990793 
-168.339 145.064 584.755 238 238 236 -0.559669 -0.509248 -0.653787 
-142.901 149.323 605.375 238 238 236 -0.280017 -0.783099 -0.555289 
-115.578 147.447 600.191 238 238 236 -0.0892155 -0.909998 -0.404901 
-107.372 147.021 599.111 238 238 236 -0.258304 -0.85439 -0.450885 
-100.502 146.572 597.788 238 238 236 -0.194459 -0.779368 -0.595627 
-76.1759 145.089 593.298 238 238 236 -0.319068 -0.828318 -0.460526 
-36.7171 142.737 585.327 238 238 236 -0.0688642 -0.947208 -0.313137 
30.0892 139.358 571.566 238 238 236 -0.312753 -0.755418 -0.575786 
56.4392 138.076 565.343 238 238 236 -0.087968 -0.883869 -0.459388 
77.2119 137.311 561.038 238 238 236 -0.247539 -0.890846 -0.380944 
84.8427 136.963 559.095 238 238 236 -0.170106 -0.853488 -0.492567 
146.323 134.799 544.304 238 238 236 -0.19447 -0.865466 -0.461681 
154.902 134.515 542.08 238 238 236 -0.112581 -0.9076 -0.404459 
160.734 134.371 540.741 238 238 236 -0.24657 -0.814147 -0.525707 
168.609 134.146 538.766 238 238 236 -0.242061 -0.870517 -0.428493 
-128.95 148.562 602.474 238 238 236 -0.0459112 -0.927407 -0.371225 
-96.3655 146.511 596.735 238 238 236 -0.135169 -0.918313 -0.372063 
-87.676 145.953 595.04 238 238 236 -0.0816285 -0.820581 -0.565671 
-73.1838 145.065 592.275 238 238 236 -0.138569 -0.931565 -0.336132 
-64.9253 144.521 590.473 238 238 236 -0.106506 -0.876192 -0.470048 
-51.7915 143.809 588.138 238 238 236 -0.085382 -0.877615 -0.471701 
-7.36935 128.907 528.08 238 238 236 0.00137747 -0.756234 -0.6543 
22.513 127.685 522.847 238 238 236 0.725428 -0.434596 -0.533743 
30.5235 126.927 519.54 238 238 236 0.112423 -0.401115 -0.909103 
52.0609 138.481 566.163 238 238 236 -0.0241365 -0.941324 -0.336641 
68.7147 137.724 562.218 238 238 236 -0.239542 -0.866268 -0.438407 
80.013 137.314 559.831 238 238 236 -0.110606 -0.89745 -0.427024 
105.249 136.396 554.118 238 238 236 -0.157102 -0.910058 -0.383555 
133.238 135.439 547.424 238 238 236 -0.160515 -0.802574 -0.574553 
188.881 133.816 533.503 238 238 236 -0.0892155 -0.909998 -0.404901 
193.292 133.733 532.499 238 238 236 -0.210505 -0.837476 -0.504303 
209.322 133.317 528.28 238 238 236 -0.220847 -0.881905 -0.416497 
230.554 132.819 522.717 238 238 236 -0.167756 -0.84769 -0.503269 
-156.863 146.47 589.755 238 238 236 0.956679 -0.119094 -0.265672 
-120.446 148.135 600.371 238 238 236 0.0684089 -0.921509 -0.382285 
-84.6411 145.913 593.977 238 238 236 -0.187695 -0.836367 -0.515034 
-57.29 144.359 589.082 238 238 236 -0.13024 -0.883057 -0.450831 
-48.3398 143.708 586.78 238 238 236 -0.157797 -0.905558 -0.393783 
-44.1889 143.512 586.124 238 238 236 -0.276947 -0.837029 -0.471893 
-18.0324 129.819 530.736 238 238 236 -0.276947 -0.837029 -0.471893 
45.4267 138.82 566.781 238 238 236 -0.4033 -0.909834 -0.097728 
87.6075 137.186 557.747 238 238 236 -0.0832879 -0.859701 -0.503962 
112.979 136.286 551.942 238 238 236 -0.108534 -0.886592 -0.449639 
141.335 135.343 545.096 238 238 236 -0.187695 -0.836367 -0.515034 
149.254 135.101 543.157 238 238 236 -0.0424263 -0.87453 -0.483113 
213.977 133.346 526.638 238 238 236 -0.0859456 -0.866501 -0.491722 
-151.237 149.932 603.612 238 238 236 0.944172 -0.235698 -0.230185 
-148.735 150.363 605.662 238 238 236 -0.0876507 -0.889028 -0.449384 
-139.803 149.66 603.692 238 238 236 -0.342319 -0.825037 -0.44959 
-112.464 147.949 599.18 238 238 236 -0.326856 -0.792428 -0.514998 
-104.719 147.401 597.555 238 238 236 -0.198678 -0.881543 -0.428262 
-93.5136 146.655 595.328 238 238 236 -0.256608 -0.843579 -0.471728 
-81.6795 145.982 593.354 238 238 236 -0.0812494 -0.833876 -0.545939 
-70.1803 145.252 591.027 238 238 236 -0.0856685 -0.872133 -0.48171 
-33.5616 143.087 583.63 238 238 236 -0.270183 -0.888171 -0.371689 
-28.8921 133.269 543.643 238 238 236 0.0839959 -0.841383 -0.533872 
-3.91955 129.252 527.574 238 238 236 -0.0584193 -0.793648 -0.605566 
2.49737 128.716 525.385 238 238 236 -0.185353 -0.824294 -0.534962 
33.6345 127.166 518.526 238 238 236 -0.165787 -0.330181 -0.929244 
63.3907 138.382 563.139 238 238 236 -0.147955 -0.856969 -0.493673 
127.972 135.97 548.131 238 238 236 -0.203716 -0.905885 -0.371312 
171.399 134.611 537.254 238 238 236 -0.223311 -0.885851 -0.406693 
180.95 134.248 534.411 238 238 236 -0.241383 -0.877075 -0.415299 
-167.695 149.922 600.551 238 238 236 0.898308 0.295476 -0.325172 
-163.247 150.968 605.406 238 238 236 0.965769 -0.119596 -0.23019 
-62.2014 144.948 589.106 238 238 236 -0.264324 -0.742324 -0.615701 
-41.3003 143.744 585.023 238 238 236 -0.210166 -0.845199 -0.491395 
-27.2926 130.387 530.939 238 238 236 0.67337 -0.49873 -0.545749 
-0.934006 129.289 526.767 238 238 236 -0.24657 -0.814147 -0.525707 
6.79689 128.118 521.967 238 238 236 0.510737 0.510737 -0.691589 
38.0159 126.939 516.508 238 238 236 -0.485139 0.378763 -0.788149 
59.0144 138.74 563.791 238 238 236 -0.346441 -0.778284 -0.52369 
71.5126 138.175 560.802 238 238 236 -0.180276 -0.901379 -0.393722 
99.6837 137.162 554.657 238 238 236 -0.0424263 -0.87453 -0.483113 
115.933 136.538 550.649 238 238 236 -0.0898364 -0.899746 -0.427068 
122.531 136.337 549.179 238 238 236 -0.251135 -0.903206 -0.348065 
135.829 135.858 545.8 238 238 236 -0.11354 -0.926106 -0.359772 
157.675 135.177 540.388 238 238 236 -0.156163 -0.895431 -0.416913 
195.677 134.122 530.706 238 238 236 -0.170106 -0.853488 -0.492567 
217.109 133.558 524.985 238 238 236 -0.137406 -0.922982 -0.359477 
223.107 133.464 523.61 238 238 236 -0.0832879 -0.859701 -0.503962 
227.331 133.444 522.827 238 238 236 -0.110606 -0.89745 -0.427024 
-126.447 149.167 600.726 238 238 236 0.0232675 -0.963764 -0.265739 
-78.8992 146.152 592.043 238 238 236 -0.306674 -0.855298 -0.417632 
-24.3018 130.694 531.286 238 238 236 -0.0206441 -0.824388 -0.565649 
-11.7016 129.464 526.469 238 238 236 0.904438 -0.0894802 -0.417115 
12.5126 128.728 523.447 238 238 236 0.0792482 -0.791041 -0.606609 
74.5892 138.219 559.769 238 238 236 -0.132718 -0.889069 -0.438113 
94.8627 137.467 555.269 238 238 236 -0.157797 -0.905558 -0.393783 
107.641 137.009 552.326 238 238 236 -0.128281 -0.866254 -0.482854 
151.822 135.54 541.601 238 238 236 -0.28806 -0.807512 -0.51473 
177.865 134.735 534.841 238 238 236 -0.0888407 -0.914376 -0.394999 
184.109 134.593 533.364 238 238 236 -0.0628259 -0.861414 -0.504004 
200.851 134.163 529.071 238 238 236 -0.13024 -0.883057 -0.450831 
-146.178 150.73 604.061 238 238 236 -0.349265 -0.783835 -0.513436 
-136.834 150.115 602.498 238 238 236 -0.180276 -0.901379 -0.393722 
-133.909 149.808 601.53 238 238 236 -0.15233 -0.874811 -0.459892 
-109.793 148.323 597.619 238 238 236 -0.165166 -0.834759 -0.525259 
-90.6879 147.077 593.971 238 238 236 -0.224406 -0.896158 -0.38281 
-55.0329 144.854 586.895 238 238 236 -0.185318 -0.830163 -0.52582 
4.03758 127.504 517.594 238 238 236 0.77716 -0.276992 -0.565064 
17.2579 128.667 522.181 238 238 236 -0.212237 -0.766843 -0.605729 
65.9325 138.779 561.53 238 238 236 -0.121961 -0.815525 -0.565725 
81.9277 138.051 557.583 238 238 236 -0.16826 -0.8413 -0.513714 
90.0592 137.805 555.998 238 238 236 -0.087968 -0.883869 -0.459388 
162.284 135.303 538.285 238 238 236 -0.264764 -0.86994 -0.416058 
204.638 134.237 527.781 238 238 236 -0.0668484 -0.901772 -0.427011 
-153.189 148.758 594.079 238 238 236 0.921083 -0.230629 -0.313713 
-123.516 149.342 599.494 238 238 236 -0.230667 -0.838651 -0.493414 
-117.979 148.999 598.588 238 238 236 -0.223311 -0.885851 -0.406693 
-98.7571 147.751 595.05 238 238 236 -0.358274 -0.757077 -0.546328 
-67.4329 145.92 589.577 238 238 236 -0.215049 -0.855684 -0.470701 
-38.6321 144.061 583.204 238 238 236 -0.251212 -0.833778 -0.491636 
-13.8793 128.871 522.132 238 238 236 0.849158 -0.278943 -0.448466 
20.6029 128.492 520.462 238 238 236 -0.24657 -0.814147 -0.525707 
27.6971 130.964 530.329 238 238 236 0.491338 -0.776735 -0.394043 
47.7748 139.698 565.1 238 238 236 -0.230792 -0.832992 -0.502852 
102.084 137.522 552.866 238 238 236 -0.386847 -0.816677 -0.428238 
118.564 136.947 549.017 238 238 236 -0.169981 -0.858773 -0.483337 
130.54 136.591 546.336 238 238 236 -0.214843 -0.860874 -0.461236 
143.609 136.192 543.238 238 238 236 -0.140766 -0.819409 -0.555657 
173.795 135.2 535.305 238 238 236 -0.128698 -0.860399 -0.493103 
190.597 134.774 531.138 238 238 236 -0.0898364 -0.899746 -0.427068 
-142.845 150.835 602.601 238 238 236 -0.321589 -0.832994 -0.450224 
-102.324 148.273 595.817 238 238 236 -0.266331 -0.880247 -0.392725 
-76.0712 146.463 590.231 238 238 236 -0.0903018 -0.928626 -0.35986 
-59.4407 145.508 587.221 238 238 236 -0.324537 -0.734648 -0.595792 
-21.484 131.129 530.215 238 238 236 -0.126624 -0.848529 -0.513775 
-16.3452 130.645 528.334 238 238 236 0.416503 -0.695278 -0.585759 
27.9374 128.062 517.612 238 238 236 0.728152 -0.321291 -0.605448 
77.5703 138.597 558.053 238 238 236 -0.0226345 -0.893398 -0.448696 
110.301 137.426 550.737 238 238 236 -0.260172 -0.859633 -0.439706 
124.833 136.913 547.238 238 238 236 -0.0446493 -0.891633 -0.450552 
138.357 136.464 543.944 238 238 236 -0.150026 -0.869569 -0.47047 
165.425 135.612 537.128 238 238 236 -0.230792 -0.832992 -0.502852 
210.98 134.522 525.946 238 238 236 -0.126624 -0.848529 -0.513775 
-168.729 146.834 582.151 238 238 236 -0.433116 -0.810294 -0.394759 
-169.887 150.84 598.454 238 238 236 0.744469 0.473753 -0.470451 
-130.946 150.238 600.242 238 238 236 -0.174097 -0.876335 -0.44914 
-115.092 149.187 597.403 238 238 236 -0.137406 -0.922982 -0.359477 
-107.166 148.735 596.225 238 238 236 -0.172264 -0.864265 -0.472622 
-87.5868 147.447 592.429 238 238 236 -0.180375 -0.804868 -0.565378 
-52.0898 145.263 585.481 238 238 236 -0.0977193 -0.783213 -0.614027 
-46.627 144.944 584.395 238 238 236 -0.0876507 -0.889028 -0.449384 
-31.5159 134.778 543.775 238 238 236 -0.736376 -0.604823 -0.303214 
8.80523 132.12 533.394 238 238 236 0.677537 -0.300949 -0.671099 
9.75493 129.321 522.084 238 238 236 0.209079 -0.760427 -0.614847 
84.724 138.57 556.44 238 238 236 -0.22261 -0.891912 -0.393621 
146.449 136.409 541.774 238 238 236 -0.124271 -0.828959 -0.545329 
154.247 136.099 539.554 238 238 236 -0.154598 -0.885687 -0.437787 
168.595 135.713 536.11 238 238 236 -0.264764 -0.86994 -0.416058 
186.634 135.305 531.9 238 238 236 -0.0654064 -0.866983 -0.494027 
197.961 134.923 528.632 238 238 236 -0.111038 -0.892521 -0.437124 
207.32 134.688 526.208 238 238 236 0.0812494 -0.833876 -0.545939 
219.588 134.52 523.541 238 238 236 -0.110606 -0.89745 -0.427024 
-173.304 143.618 567.292 238 238 236 -0.806087 0.431088 -0.405447 
-154.991 148.758 590.573 238 238 236 0.729461 -0.413306 -0.545037 
-95.9421 148.208 593.854 238 238 236 -0.260172 -0.859633 -0.439706 
-83.5259 147.397 591.412 238 238 236 -0.264764 -0.86994 -0.416058 
-73.1061 146.719 589.291 238 238 236 0.021806 -0.932527 -0.36044 
-64.6702 146.263 587.895 238 238 236 -0.300155 -0.841367 -0.449455 
-43.7471 144.939 583.418 238 238 236 -0.190198 -0.84915 -0.492717 
-35.7687 144.545 582.075 238 238 236 -0.130388 -0.878325 -0.459939 
21.8764 127.35 513.016 238 238 236 -0.3949 -0.888895 -0.232207 
